# X Y Z
-4.280019 -2.584847 0.723248
-1.701330 -4.701646 3.423332
4.951685 0.693410 7.518356
4.854159 -1.198807 2.309646
-1.560284 4.750317 4.740245
-0.078522 4.999383 0.721995
-1.852487 4.644168 7.836726
-0.429427 -4.981525 4.100738
-1.310242 -4.825274 1.174598
4.101343 -2.859892 7.428861
2.293049 4.443189 4.232066
2.751626 4.174752 0.161104
-4.937601 -0.787464 8.954952
3.557588 -3.513342 6.129039
1.975053 -4.593383 5.078989
4.957941 -0.647161 9.572990
-4.158793 2.775687 2.191848
-4.685036 -1.746549 0.305295
-3.912297 3.113508 2.782034
-4.448185 2.283341 3.174982
-4.325180 2.508549 0.473509
-1.324005 -4.821515 0.052515
4.974772 -0.501639 2.860562
-4.294537 2.560654 8.564628
4.998559 0.120018 2.462278
4.951818 -0.692456 5.212767
2.676089 4.223571 5.534204
-2.885038 -4.083694 1.138005
-3.806216 3.242332 8.283201
-4.707970 1.683751 5.646391
0.412563 -4.982950 5.040017
1.652132 4.719159 4.729071
3.786050 -3.265857 6.185458
-1.391994 -4.802328 3.292568
-0.016127 -4.999974 8.711722
2.670277 -4.227248 4.486732
4.988541 0.338320 1.247260
-4.706406 1.688117 5.636049
4.425987 2.326078 4.744974
-4.545905 -2.082005 0.281916
4.102006 2.858942 0.530173
-4.902650 -0.981845 7.182204
3.676026 3.389223 5.355141
-0.678675 4.953726 9.707108
-1.690148 4.705677 3.848293
-1.967633 4.596566 6.196615
-1.006890 -4.897568 8.303158
1.656132 4.717757 4.385993
4.993813 -0.248663 1.128303
-4.997784 -0.148861 8.349987
4.996131 -0.196659 2.448384
1.645343 -4.721530 7.570417
2.325920 4.426070 5.461061
-4.524925 -2.127217 6.772019
2.458848 -4.353627 9.741900
1.767929 4.677010 4.836390
3.766723 -3.288130 8.379466
-2.001069 -4.582109 6.638795
-4.572522 -2.022880 3.202407
4.998147 -0.136128 7.859691
-0.784103 -4.938136 9.143443
-1.062374 4.885833 5.450662
2.246272 4.467019 2.750859
-2.225573 -4.477368 9.816956
1.421352 -4.793721 7.890012
-4.944868 0.740459 4.167303
-2.803439 -4.140137 6.927519
-2.183112 4.498224 5.916573
2.612829 -4.262995 9.425940
4.278494 -2.587370 9.779644
-1.732639 4.690198 2.159417
-4.173326 2.753789 7.606366
-1.985759 -4.588765 6.567555
4.982630 -0.416411 3.996426
-3.582989 -3.487433 8.684967
3.149889 -3.883066 8.293460
-4.984003 0.399644 0.586899
-4.886749 -1.058153 9.913165
-4.677271 1.767240 4.513252
3.534050 -3.537017 8.920178
-4.698543 -1.709880 6.714541
0.759280 4.942013 7.689879
3.750354 -3.306788 2.861726
2.511881 4.323246 5.787670
-0.056655 4.999679 4.117671
-4.122869 2.828773 5.255842
4.155556 -2.780531 3.304165
-4.576093 2.014788 2.767438
-4.041547 -2.943789 0.573180
4.641762 -1.858507 1.333842
4.918771 0.897601 1.420850
-4.994453 0.235449 5.325169
4.815488 -1.345762 7.652966
4.888118 -1.051811 1.574565
-1.625494 -4.728400 7.072717
-3.293034 -3.762437 0.204110
2.058158 4.556752 0.577052
2.551656 -4.299890 8.923120
4.542193 2.090092 8.595537
4.969794 0.548766 4.558551
0.232725 4.994581 4.656746
-3.519380 -3.551615 6.730179
0.922290 -4.914202 9.894314
0.803443 4.935026 5.339930
0.315994 4.990005 6.054231
4.179238 -2.744808 8.391902
0.345424 -4.988054 6.321825
-3.532531 -3.538534 5.228936
-4.910921 -0.939602 3.430400
-3.923985 3.098765 5.662703
-4.999908 0.030268 8.923123
-4.919014 -0.896273 8.776573
-1.041775 4.890266 7.191766
4.425616 2.326784 0.436493
2.163320 4.507776 9.226405
4.826091 1.307227 0.790899
0.752898 -4.942989 0.081973
-4.864804 -1.154852 0.714011
-4.988326 0.341475 7.590099
-4.748946 -1.564453 1.013474
3.441386 3.627239 6.364021
4.812521 1.356333 7.836715
-4.353865 -2.458425 0.731964
2.513971 4.322031 4.061093
-3.895453 3.134557 8.337439
0.798137 4.935887 2.374445
4.993641 -0.252086 7.830785
3.235257 -3.812232 0.899960
-4.449378 -2.281016 3.523724
3.030554 3.976901 3.071035
0.770634 4.940255 3.788473
4.988170 -0.343748 4.830734
-0.254464 -4.993521 0.304874
3.584415 -3.485967 3.877212
-4.929626 -0.835935 9.929039
-0.591622 4.964875 0.752986
-0.190844 -4.996357 1.131322
-4.226835 2.670929 0.878425
1.512893 4.765622 6.799983
-3.666077 -3.399982 0.112121
3.159272 3.875436 7.107740
-0.793540 -4.936628 9.160340
4.928408 0.843088 9.133785
1.639516 -4.723557 0.898086
1.665198 4.714564 4.755673
3.787143 3.264591 0.055574
-4.142660 2.799709 6.582568
-3.819913 -3.226184 3.147617
3.995236 -3.006342 4.736080
-3.089220 -3.931503 1.802007
-3.953748 -3.060699 9.611254
2.863152 4.099068 5.966283
2.627134 4.254194 0.750631
-2.444168 4.361885 4.595495
0.896015 4.919061 6.501416
4.690557 1.731669 9.250852
-4.995381 0.214865 1.476046
-4.974559 -0.503746 6.523641
4.902950 -0.980349 0.687269
2.156147 4.511212 3.649680
0.108428 4.998824 8.467424
-4.966672 -0.576337 7.453748
0.787921 4.937528 7.287485
4.896734 -1.010938 3.276891
4.129056 2.819734 2.489477
-0.558710 -4.968686 1.423248
4.538249 -2.098641 9.334865
3.218060 3.826760 9.976092
4.926074 0.856617 1.890006
-2.277229 4.451318 7.397439
1.293078 -4.829901 3.333257
4.991559 -0.290406 2.597969
-2.031537 4.568682 8.253760
0.894152 4.919400 3.648168
1.564779 -4.748839 1.674350
2.535004 4.309728 3.391526
1.095628 -4.878483 3.751176
1.352699 4.813544 1.606597
-2.748553 4.176776 4.267779
3.819801 3.226317 7.802151
-1.386434 -4.803936 3.397142
4.999852 -0.038514 8.829301
3.539924 3.531139 3.993835
1.729864 -4.691223 8.135157
3.843529 -3.198013 3.436083
-2.681172 -4.220346 1.713262
0.318876 4.989821 3.678605
-2.204372 4.487844 5.174109
4.999220 0.088297 2.070367
-3.237659 3.810192 5.114573
4.296796 2.556862 4.827267
0.598485 -4.964052 9.679288
3.735737 3.323292 7.845092
2.238296 4.471021 9.338795
-0.044456 -4.999802 8.924638
-4.623557 -1.903345 7.908615
1.553028 4.752695 3.301811
0.624212 4.960883 0.360767
-4.602276 1.954240 9.914195
-4.087553 -2.879568 7.015940
3.494106 -3.576482 8.058612
2.341100 4.418060 2.560693
0.960335 -4.906909 9.348870
0.653672 4.957087 2.429461
-3.926232 -3.095917 0.331374
3.739667 -3.318869 5.586039
-4.593662 1.974404 9.823102
4.865675 -1.151175 3.929557
-0.775433 -4.939504 6.863251
4.962304 -0.612810 3.500733
4.558973 2.053233 8.256778
-1.364484 4.810216 5.572938
4.524076 -2.129022 2.314713
-3.993945 -3.008056 8.797812
-2.320162 -4.429091 3.432944
-3.383795 3.681023 4.167486
-2.125952 4.525520 4.584251
-3.617742 -3.451369 6.979748
4.963119 0.606174 2.170129
-3.212985 3.831022 6.061478
-2.135181 4.521173 0.572888
-4.397875 -2.378801 8.542758
-1.534983 4.758553 3.099075
-3.237698 -3.810159 2.400394
4.934460 0.806912 3.752572
2.199332 4.490316 9.442456
2.172844 -4.503193 0.142967
0.308845 4.990452 6.746852
-4.193242 2.723366 8.677903
2.778247 -4.157083 7.912544
-4.965038 0.590256 4.408836
3.756275 -3.300061 3.930338
-4.392491 2.388728 2.732682
-2.782193 -4.154444 9.048004
3.142730 -3.888862 8.318195
0.373597 -4.986023 6.936014
4.183210 -2.738751 2.398386
2.993969 -4.004516 1.991975
-4.191084 -2.726685 0.756219
4.972048 -0.527960 3.300217
-1.533440 -4.759050 6.437119
-1.310356 4.825243 1.264120
-4.740869 1.588761 1.959011
4.240086 2.649843 0.529522
4.891934 -1.033917 1.512216
4.826422 1.306005 4.765743
1.282798 4.832642 8.069599
2.779717 4.156101 0.497421
-3.397365 -3.668503 0.770588
-2.240459 4.469938 7.478232
-3.438435 -3.630036 1.855450
-3.521125 3.549885 1.338026
-0.447869 4.979901 8.948683
-2.201828 4.489093 0.601975
4.179270 -2.744759 4.673454
-1.402207 4.799356 7.496670
1.247669 -4.841830 0.823710
3.415832 3.651314 8.465505
4.891057 -1.038058 6.626888
-4.956966 -0.654588 2.471406
0.897683 -4.918757 0.579835
3.640774 -3.427063 3.709382
4.189916 2.728480 8.637164
4.322640 -2.512924 1.264683
-4.470409 -2.239519 0.975314
-2.843877 4.112464 5.840958
4.565639 2.038368 7.323866
2.494180 4.333482 0.603256
-4.696963 -1.714217 7.812659
0.327374 -4.989271 0.543749
-1.467915 4.779668 5.919202
-2.732319 4.187414 2.651907
2.046689 4.561915 0.083342
-3.511475 3.559430 0.910425
-2.661402 4.232840 1.120674
3.408786 3.657893 0.373196
-4.882314 1.078428 5.525177
-2.178502 4.500459 2.652406
0.710974 -4.949193 5.245632
-3.414706 -3.652367 2.509897
-0.961337 -4.906713 3.923933
-1.712844 -4.697464 7.306234
-1.704744 4.700409 6.016136
-2.560436 -4.294667 4.580039
4.549563 2.073999 4.046183
2.304079 -4.437479 0.866243
-4.430528 2.317418 1.405489
4.782716 1.457953 3.148984
-3.007960 3.994018 0.833794
0.230004 -4.994707 8.952385
4.897527 -1.007089 4.325615
-4.999867 0.036466 1.793623
0.465774 4.978258 2.635592
3.633986 3.434260 3.188475
2.376199 -4.399282 7.889819
-2.664511 -4.230884 4.953692
4.793477 -1.422175 7.504260
0.298215 4.991099 7.112508
1.378725 4.806154 8.183337
-4.946794 -0.727479 3.806165
1.538274 4.757490 7.668754
-4.973020 -0.518725 6.796734
-4.515781 -2.146561 9.234983
3.628923 -3.439610 7.494458
-3.444660 -3.624130 8.318663
3.064910 -3.950484 5.450213
3.343468 3.717691 5.745824
3.176185 -3.861587 5.407028
2.217909 -4.481169 4.783396
4.257288 -2.622118 9.357636
1.827108 4.654210 9.295174
-4.526873 2.123068 3.474482
-2.991579 4.006302 5.990933
4.999967 0.018051 1.057429
-2.410970 4.380322 7.875414
2.275606 -4.452147 1.078170
4.992647 0.271068 4.737462
-3.176374 -3.861431 4.900944
0.899735 4.918381 1.000139
4.110164 -2.847200 3.617385
1.899456 -4.625156 9.359057
4.781018 -1.463512 9.146567
-3.302652 -3.753997 8.702755
-4.148799 -2.790603 5.367023
4.933528 0.812590 2.913896
4.698534 1.709906 3.294909
4.439503 -2.300177 8.168207
-4.395444 2.383289 3.486391
3.786235 -3.265643 6.124264
4.015476 2.979254 2.245605
4.988299 -0.341869 1.104319
2.160353 -4.509199 0.132306
3.305259 -3.751702 2.443129
0.308738 4.990459 3.631768
3.628086 -3.440493 4.171246
-2.617276 4.260266 9.422040
-2.239214 4.470562 2.777052
3.290063 -3.765035 7.287386
2.191827 4.493984 0.649640
-4.980221 -0.444298 9.316556
-0.530267 4.971802 7.544677
4.996371 -0.190462 1.149660
1.518934 -4.763700 1.275583
3.828838 3.215587 9.913012
3.463431 3.606196 5.032447
0.929386 4.912865 5.086798
4.644995 -1.850411 0.634975
-4.934906 0.804175 0.950046
-3.081758 -3.937356 9.399446
4.954057 -0.676253 0.904269
0.844380 -4.928186 2.590181
-2.879681 4.087474 0.693556
-0.306053 -4.990624 0.829890
-3.610466 3.458979 1.247594
4.729809 -1.621390 8.203004
2.876644 -4.089611 5.543860
3.412705 3.654237 9.493166
4.562381 -2.045649 7.527551
4.963252 0.605086 7.838837
4.575601 -2.015905 2.710264
-0.327147 4.989286 2.396459
-4.924275 0.866900 3.948651
3.273668 -3.779299 8.338971
4.662844 1.804960 4.439131
-3.191740 3.848740 4.487851
-4.849449 1.217720 5.311025
4.992758 -0.269021 5.481340
0.360636 -4.986977 7.715923
-2.387435 4.393194 2.271905
3.031058 -3.976517 3.127390
-0.136913 4.998125 1.833917
4.761630 -1.525413 4.700351
2.420432 4.375101 2.611462
3.710154 -3.351828 7.237557
1.488281 4.773366 1.079975
-4.734383 -1.607985 6.504322
3.366253 3.697072 1.726222
-0.861214 4.925273 5.056001
-0.385253 4.985136 5.364203
2.179318 -4.500064 0.529980
4.999811 0.043529 7.869995
4.992805 0.268142 0.339975
2.815729 4.131787 8.945126
-1.875004 -4.635123 5.176945
0.460544 4.978745 4.706184
-4.307708 2.538435 3.980380
-0.183675 -4.996625 8.982989
4.994254 -0.239638 7.677601
-4.999597 -0.063465 3.205279
1.809776 -4.660977 8.635636
-2.767765 -4.164070 7.580432
4.073218 2.899810 4.966952
4.687364 -1.740293 5.558388
-4.893044 1.028649 4.280099
-1.287026 -4.831518 4.351867
-3.191503 3.848936 6.797160
-4.448161 2.283390 2.775835
3.330272 -3.729516 3.550541
-0.913734 4.915800 7.195392
-1.082563 4.881399 7.756173
-3.758786 3.297200 5.980550
2.797228 -4.144335 7.140218
-0.532421 -4.971572 5.464186
-4.242297 2.646303 3.644914
4.988767 -0.334971 2.441904
-3.923142 3.099832 6.997401
2.589500 4.277206 8.313229
-1.513519 4.765424 3.962858
-4.568914 2.031016 6.981151
-1.387805 -4.803540 5.991863
-2.565848 4.291436 7.473471
3.995729 -3.005686 2.091575
4.231036 2.664270 2.950275
-3.919863 -3.103978 7.320588
-1.923676 4.615135 6.110642
1.580348 -4.743680 9.635425
0.265160 -4.992964 4.643788
-3.797828 3.252154 0.098745
4.955162 -0.668107 2.868016
-0.845349 4.928020 6.418507
3.915690 -3.109240 4.136432
4.963576 0.602419 6.302880
-3.163113 3.872301 8.399795
4.442214 2.294936 6.536163
4.551078 2.070673 8.834827
-4.948093 0.718591 4.560551
-4.707850 -1.684086 0.551774
-2.234753 -4.472793 5.748512
-4.740564 1.589671 4.075104
0.697045 4.951174 0.672958
-2.399729 -4.386491 3.719247
-1.922800 -4.615500 3.484734
-4.997655 -0.153130 1.099147
3.246328 -3.802809 9.768552
-4.954100 -0.675940 0.869252
1.875184 4.635050 4.991366
4.954034 0.676421 0.892622
-3.963424 -3.048159 9.016917
0.418630 -4.982444 5.053258
-3.370611 -3.693099 1.461649
0.382332 4.985361 9.298169
4.329855 2.500470 6.004650
3.857984 -3.180560 9.905354
-3.937261 -3.081879 2.873468
-4.852512 -1.205458 7.261987
-1.972127 -4.594640 3.971355
-0.071705 -4.999486 8.555628
3.088443 3.932114 8.557850
-4.998951 -0.102418 9.793722
4.603485 -1.951390 5.911417
-2.096201 -4.539377 1.569067
-4.187546 -2.732115 0.094431
2.176442 4.501456 8.509326
3.728424 -3.331495 0.653222
-2.080411 -4.546635 8.666460
4.170336 2.758314 4.122877
4.941148 0.764887 4.932032
3.604208 3.465499 3.991333
-1.485551 4.774216 0.189633
-2.093503 4.540622 0.827825
-4.748817 -1.564845 6.336578
1.286540 4.831647 4.369574
1.181978 -4.858285 5.306843
-1.703767 -4.700763 1.489770
2.403892 -4.384210 4.612416
-3.428359 -3.639554 9.884156
-0.713307 -4.948858 8.121710
-0.621986 -4.961163 7.891012
4.495547 -2.188619 4.614849
2.813541 4.133278 2.469248
0.045210 -4.999796 6.605350
-0.496565 4.975281 3.823158
4.998262 -0.131832 9.143915
-4.581285 2.002954 1.231463
-3.052521 3.960065 3.972423
0.522911 4.972581 2.886632
-0.995419 -4.899912 5.721561
-3.924337 3.098318 2.830946
-4.744303 1.578478 6.292562
-2.542215 4.305479 4.092594
4.640739 1.861060 3.366766
1.920476 -4.616467 9.176237
-3.721869 -3.338816 7.224721
2.450402 -4.358386 9.169504
-3.785588 -3.266393 2.061511
-4.500935 2.177518 2.723609
-4.914529 0.920546 2.238193
3.856328 3.182567 9.779504
0.476278 -4.977264 1.033752
-3.197808 -3.843699 9.185100
-4.877224 1.101219 1.343690
4.016201 2.978276 8.722951
-4.503629 2.171941 5.177691
1.312888 -4.824554 0.576384
-3.450490 -3.618579 2.544401
4.869394 1.135342 0.001894
-1.158995 4.863819 5.462933
3.649948 -3.417291 8.221208
-2.849494 -4.108574 7.873173
4.501070 -2.177240 8.874028
-4.597307 -1.965901 1.810941
-3.406640 -3.659891 2.595468
4.846259 1.230354 9.451705
-2.503509 -4.328099 0.203827
-4.924795 -0.863943 2.322805
1.070857 4.883981 4.115352
3.054993 3.958158 6.056087
1.570803 4.746849 0.748990
4.944540 0.742649 9.321441
3.560147 -3.510749 5.718539
-4.991599 0.289731 1.745288
-4.025744 -2.965364 3.990877
-4.344051 2.475726 2.875957
2.686867 -4.216722 5.623256
3.773145 3.280758 6.032014
-3.330311 3.729481 9.159657
4.644037 -1.852814 3.673152
1.833012 -4.651889 6.980431
3.599229 3.470670 7.746508
-1.227287 4.847037 9.473106
-3.017447 3.986855 4.612952
3.680319 -3.384561 4.787353
-4.843320 1.241873 2.690078
1.877168 -4.634246 4.255633
3.369259 3.694333 4.012905
3.775222 -3.278368 0.543246
4.898327 -1.003192 7.784398
-3.915272 -3.109765 2.627740
2.869646 4.094524 9.137354
4.256747 -2.622996 4.041827
-3.127643 -3.901006 0.290694
4.848342 -1.222121 6.913818
2.500544 -4.329813 6.267934
0.702539 4.950398 5.275887
4.805483 -1.381062 2.114695
-4.999772 -0.047703 0.944549
0.726245 4.946976 6.677118
-4.697799 -1.711923 9.384052
-1.801523 4.664174 3.391590
-1.484897 4.774419 2.236178
-2.076559 4.548396 5.112240
2.267189 -4.456440 9.402872
4.905579 -0.967106 3.543379
-4.695148 -1.719183 0.038749
1.947308 -4.605214 8.231078
-4.851902 -1.207912 1.406281
-0.557195 4.968856 8.595134
2.776388 4.158326 1.340807
4.891979 -1.033704 8.331096
4.657920 1.817631 8.469195
4.128233 2.820938 9.743413
4.125536 2.824881 3.630970
4.854352 1.198026 7.440811
-4.765337 1.513791 0.926647
-4.666060 -1.796632 4.030205
3.673236 3.392246 1.699779
1.047017 4.889147 5.501125
-4.885089 -1.065787 9.350237
-1.852376 4.644212 7.540761
-2.579517 -4.283234 7.808134
-3.926726 -3.095291 7.270631
3.151850 -3.881474 9.177710
4.815720 -1.344931 2.083435
-2.485756 -4.338320 7.103799
-1.038273 -4.891011 2.526652
4.884368 1.069086 1.793987
4.973738 -0.511795 6.917986
-0.403509 4.983691 4.087853
2.510068 4.324299 7.246237
-4.999988 -0.010805 1.982966
-2.805750 -4.138571 0.053699
-4.997775 0.149164 0.146394
4.888647 -1.049346 5.154297
3.383015 3.681740 4.961043
0.227858 -4.994805 6.994523
-3.995630 3.005817 7.178965
2.104968 4.535318 9.798792
-3.265805 3.786095 4.539400
1.339685 -4.817182 8.024282
-4.644345 1.852043 3.312482
2.094175 -4.540312 6.591358
-0.598559 4.964043 7.587021
1.107360 -4.875834 5.291748
-3.240863 -3.807467 9.807677
4.879299 -1.091989 5.745658
-3.338645 -3.722022 9.214864
-0.239769 -4.994248 0.894612
-4.970892 -0.538730 9.486754
3.411362 3.655490 8.619218
-1.364058 4.810338 0.997737
-4.102579 2.858119 0.055532
-4.145600 -2.795354 1.205660
-3.474841 -3.595202 2.377545
4.138772 2.805454 3.119986
-3.912420 -3.113354 0.504769
-3.229695 -3.816945 8.121341
0.901426 -4.918072 5.884318
4.977179 0.477167 1.718890
3.419985 3.647424 5.939485
-4.947562 0.722237 7.758150
-4.394323 -2.385356 5.188053
3.144822 3.887171 3.844632
3.361975 -3.700963 8.743673
4.948138 0.718285 7.256604
-3.576359 -3.494232 7.933435
4.871381 -1.126787 8.022150
-4.310699 -2.533352 0.847704
3.021098 -3.984089 0.172760
3.421356 3.646138 8.660082
1.042699 -4.890070 4.436711
-3.515201 3.555750 3.104438
4.843513 -1.241120 0.365386
-4.829022 -1.296358 3.234516
1.513143 -4.765543 0.858337
-4.902642 0.981885 8.714842
0.168155 -4.997172 4.034696
4.826412 1.306042 6.657323
-4.577483 2.011628 7.034742
2.336056 4.420728 9.576158
4.993876 -0.247400 3.638747
-3.866471 3.170237 8.477283
4.797649 1.408035 3.260045
-4.570199 -2.028123 5.009354
-1.830473 4.652888 9.890164
-1.235372 4.844982 9.831538
-2.499334 4.330511 8.441192
-2.074469 4.549349 7.423828
-0.526007 -4.972255 6.217652
-3.182852 -3.856093 5.708821
3.259637 -3.791407 6.730798
-3.119232 3.907735 5.370690
-0.876067 -4.922652 9.008651
-3.279737 -3.774033 0.124956
4.974556 -0.503778 1.097137
4.725052 1.635200 4.061096
1.794109 4.667030 1.446387
3.610551 -3.458890 8.753523
3.208414 -3.834851 2.663146
1.637294 4.724327 3.177945
-4.540102 2.094629 3.887631
1.188091 4.856793 5.009161
3.131488 -3.897920 9.365254
4.867205 1.144692 1.329566
-3.723397 3.337112 1.018117
0.959199 -4.907131 9.076434
2.811427 -4.134716 7.843793
-0.270151 -4.992697 8.092818
-3.455270 -3.614015 2.754211
2.133801 -4.521824 4.452805
-4.526209 2.124484 5.610167
-4.911215 -0.938068 2.068712
2.782202 -4.154438 3.671404
4.948663 0.714659 3.549426
4.173022 2.754248 0.611993
-1.675985 -4.710740 4.417169
1.256999 -4.839417 2.357409
-1.031900 -4.892360 3.840796
-0.226558 -4.994864 6.534233
-1.968488 4.596200 5.110231
3.464304 -3.605357 4.860311
1.521557 4.762863 4.596525
-4.950073 0.704827 9.628634
1.951866 4.603283 2.736905
-2.041142 -4.564399 2.872331
4.831187 -1.288267 7.780586
-4.975678 -0.492577 8.948077
-2.881264 4.086357 7.533504
-1.291613 4.830294 8.336858
0.321671 4.989642 2.564652
4.897633 1.006575 0.025742
-2.571197 4.288233 2.497828
0.845919 4.927923 1.232114
4.811062 1.361501 0.670186
-3.580205 3.490291 6.490910
-4.323292 2.511801 3.911826
-3.202720 3.839607 7.839638
0.299165 -4.991042 1.436064
4.772560 -1.490862 7.385720
0.943050 -4.910260 7.999588
-2.430524 4.369503 2.111502
1.056938 4.887012 9.135516
-0.760684 4.941797 8.330781
3.102196 3.921273 6.428888
-4.494809 -2.190134 1.885266
4.627986 1.892550 5.884703
0.493576 4.975579 0.943774
2.962457 -4.027884 4.400430
2.183175 -4.498194 5.017821
2.135886 4.520839 5.968840
-4.926781 -0.852543 1.441551
3.691555 -3.372303 2.043187
3.654144 -3.412804 6.364247
2.359495 4.408263 4.509216
-4.388759 2.395579 9.576193
4.428564 -2.321168 0.916095
-4.900929 -0.990400 6.921802
-3.394202 3.671429 1.128699
2.959627 4.029964 9.537297
3.193546 3.847241 6.206527
-3.475668 3.594403 9.179274
-4.971058 -0.537201 7.057689
-4.253619 -2.628065 0.856164
-4.983931 -0.400542 6.823913
4.695009 1.719561 7.120189
2.063160 -4.554489 5.001150
4.711349 1.674273 0.058509
-4.933664 0.811762 7.324689
4.705761 -1.689915 9.789766
1.900906 -4.624560 3.142643
3.318608 -3.739899 3.119167
-4.132682 2.814416 5.303213
-3.471330 3.598592 2.371882
-3.658012 -3.408658 6.471452
1.435461 -4.789515 5.889965
3.843141 -3.198479 8.171192
-0.862733 4.925007 6.025184
-2.637595 -4.247716 7.129928
2.236569 4.471885 0.602828
3.503948 3.566841 1.546054
-2.542493 -4.305314 4.129999
4.295549 2.558956 1.767170
-0.979140 -4.903191 7.905044
4.709295 -1.680041 4.318093
0.689938 -4.952170 7.311573
1.907118 -4.622002 4.425027
3.454111 -3.615124 3.828600
4.747685 -1.568275 7.972441
0.509910 4.973931 9.484454
-4.625508 1.898599 0.405609
4.321636 2.514650 3.577688
3.657968 3.408705 6.803813
0.487412 4.976186 7.439963
-4.162446 2.770206 9.847332
4.246362 2.639774 5.497522
-1.339252 4.817303 2.228444
2.145269 -4.516395 0.576125
2.399848 -4.386426 8.301918
3.022711 -3.982865 9.251612
4.413542 2.349606 5.520654
-2.856728 -4.103548 8.991504
4.830827 1.289615 8.104675
-4.326917 2.505551 7.936543
-1.031660 -4.892410 6.342785
-4.980384 0.442463 1.752669
1.395282 4.801374 6.123588
0.957562 -4.907451 4.054416
0.413545 -4.982869 2.629927
-0.191294 -4.996339 2.049313
1.045757 -4.889416 3.446220
4.715611 -1.662232 5.916009
1.886910 -4.630288 8.804995
-4.434215 -2.310354 1.340514
-3.963352 -3.048252 1.936796
4.787203 -1.443152 7.452704
0.944606 -4.909961 9.548894
4.654578 1.826172 0.464272
4.852639 -1.204945 0.463478
4.869967 1.132884 2.981290
0.009815 -4.999990 2.729293
4.000791 -2.998944 7.547779
2.169243 -4.504929 8.308787
4.503606 2.171989 9.027552
-3.480798 -3.589435 2.532694
-4.991155 -0.297268 7.634200
2.992746 4.005430 6.786891
-1.844275 4.647435 4.819134
3.176258 3.861526 4.406156
1.419915 -4.794146 5.803102
-0.870904 -4.923568 4.083139
3.137168 3.893351 9.151601
-4.782734 -1.457893 0.953133
2.053836 -4.558701 2.875719
-4.168971 2.760377 4.427241
1.503243 -4.768675 2.647915
-3.276812 3.776573 5.998133
3.450161 -3.618893 6.528775
-4.999990 -0.010173 2.866105
0.858218 4.925795 9.552548
-4.377764 -2.415612 1.637063
1.038485 -4.890966 9.756334
3.042445 3.967812 9.399517
2.109499 -4.533212 7.288382
0.859515 4.925569 0.146456
0.806010 -4.934607 4.964275
-4.974644 -0.502908 4.815922
-3.703154 3.359561 6.268070
-3.310719 3.746884 4.675184
4.670534 1.784970 0.103514
3.972170 -3.036753 5.988593
-4.929860 0.834553 6.494826
2.043734 -4.563239 7.711256
-3.864560 -3.172566 5.983401
-0.940805 4.910691 8.612906
0.279654 -4.992173 9.617929
2.448403 -4.359510 1.783777
3.551545 -3.519450 2.714681
-4.991433 0.292575 3.509850
2.617446 4.260161 5.772286
-4.767369 -1.507380 3.807958
4.994541 0.233589 4.114178
-3.422433 -3.645127 7.831571
-2.553384 4.298864 6.493850
0.877751 4.922352 4.895134
4.660970 1.809796 8.960594
-0.366258 -4.986567 9.411308
-0.790211 4.937162 4.721402
3.434983 3.633303 8.046400
0.646402 -4.958040 5.781321
1.279733 -4.833455 9.154414
-4.787887 -1.440880 1.453294
-4.377767 -2.415607 8.823556
0.169565 4.997124 1.078344
-4.567421 2.034370 7.605805
-2.301386 -4.438876 7.541573
-2.913088 4.063732 7.865050
0.962317 -4.906521 5.204138
-4.073708 2.899122 4.440520
-4.723863 -1.638634 8.846889
-0.222837 4.995032 7.190915
2.373974 -4.400483 9.988015
1.929489 -4.612708 5.792402
1.213851 4.850419 7.210629
-3.636659 -3.431430 8.872472
-2.900164 4.072966 5.660789
-3.762021 3.293508 1.419033
4.854330 1.198115 4.705524
-2.632744 -4.250725 3.675058
4.999116 -0.093999 8.318494
-4.970113 0.545870 6.067529
-1.119473 -4.873067 5.844643
-4.471760 2.236819 0.138892
0.095345 -4.999091 5.844042
4.524209 2.128741 9.300301
3.310358 -3.747203 6.311464
1.290286 4.830648 1.983203
-4.495870 -2.187957 1.511268
1.806333 -4.662313 3.665762
2.964675 4.026252 4.779801
-2.002471 -4.581497 6.366039
4.927264 -0.849747 9.885027
2.025171 4.571507 6.432124
-0.499486 4.974989 5.907797
-3.714621 -3.346878 3.897202
4.374679 2.421194 6.278220
-4.996176 0.195510 1.841303
4.718982 -1.652638 7.691383
-4.495709 -2.188288 2.873721
4.009080 -2.987855 5.156256
-3.413914 3.653107 9.369426
4.718214 -1.654828 7.538677
4.437832 -2.303400 3.987812
-4.917910 0.902310 6.134110
1.087614 -4.880276 4.734298
-0.455662 -4.979194 3.188608
-4.669575 -1.787475 2.899442
4.274259 -2.594361 2.696970
4.954500 0.673002 1.538475
1.836882 -4.650362 2.507090
3.122486 3.905135 1.615272
2.096869 4.539068 6.558119
4.904001 -0.975078 4.412729
3.386714 -3.678338 0.814080
0.275811 -4.992387 8.069801
4.889418 1.045751 3.115034
-2.983658 4.012205 6.828601
4.425525 2.326957 2.201785
2.218629 4.480813 2.924526
-2.027415 4.570513 7.520228
-0.781284 -4.938582 5.704517
0.405128 -4.983560 4.557743
-4.401343 2.372379 2.880205
4.089703 2.876514 2.968583
4.956143 -0.660791 9.104325
4.766531 -1.510027 5.604934
4.044207 -2.940135 5.682778
-3.405662 -3.660802 2.436256
-3.142760 3.888838 6.534626
3.709656 3.352381 7.939193
3.112610 3.913012 9.064070
-4.999796 -0.045162 0.618070
-3.527534 -3.543516 5.637454
0.048665 -4.999763 9.847567
-4.975783 -0.491512 7.287118
-4.930697 0.829593 5.998097
-4.906670 0.961555 4.163835
-1.021034 4.894639 0.478883
-4.766877 1.508936 7.510783
-3.000040 3.999970 4.128553
4.248206 -2.636805 2.453287
0.437148 -4.980853 0.168332
-2.300737 -4.439213 4.492145
4.885596 1.063460 5.427978
3.538064 -3.533002 8.192672
-2.273329 -4.453310 3.338542
-3.781129 3.271554 6.191109
3.631871 -3.436497 5.984736
-3.101754 -3.921622 1.209464
4.772836 1.489978 6.630543
3.722344 -3.338286 3.387106
-4.953469 0.680549 7.144890
2.811344 4.134773 8.258307
3.725236 3.335058 0.216514
4.796213 1.412918 7.524553
0.710601 4.949247 6.267959
-4.501915 2.175491 0.368336
-0.637602 -4.959180 3.813244
1.813933 -4.659361 3.802574
-0.454642 -4.979287 9.370630
-2.764729 4.166086 4.891121
0.252080 -4.993642 3.194684
3.416497 -3.650692 3.124403
-4.945731 0.734670 9.276417
-3.310490 -3.747087 8.306837
4.963303 0.604666 1.232633
1.701115 4.701724 7.502363
-1.330070 -4.819846 5.583422
2.657720 -4.235153 7.319164
0.656580 4.956703 9.561107
-3.139749 -3.891269 3.783337
-2.738825 4.183161 5.021559
1.907750 -4.621741 3.532421
1.339012 4.817369 4.346148
-1.839912 4.649164 6.698562
3.955265 -3.058738 7.781189
0.850616 4.927114 0.454805
-4.858367 1.181638 4.523464
-1.354481 4.813043 9.573612
4.652809 1.830673 5.690079
-3.447671 3.621266 5.025095
-3.834349 3.209014 4.488210
-4.978110 -0.467359 1.053206
4.388831 -2.395446 7.974626
2.362312 -4.406754 7.106525
4.014308 2.980827 6.018356
3.453806 3.615414 8.839245
4.907586 0.956870 1.866906
-4.263347 2.612254 7.041560
-4.941010 0.765779 5.580274
2.918767 4.059655 8.902820
-2.358685 4.408697 9.448020
1.086002 -4.880635 4.848884
1.780910 4.672083 1.858208
-1.283264 -4.832518 5.763512
4.734510 1.607613 7.218215
4.996044 -0.198863 2.646831
4.968749 0.558148 8.881232
-3.882075 -3.151110 6.843976
0.306907 -4.990572 2.303641
4.136318 2.809070 5.492220
-0.960317 4.906913 3.107651
4.804934 -1.382970 6.283781
4.742637 1.583475 6.762321
0.740209 -4.944905 1.152876
4.696940 1.714278 1.087774
4.978510 -0.463074 5.035455
3.819074 -3.227177 7.125475
1.724310 4.693267 3.670905
3.931006 3.089853 6.625261
-1.859489 4.641368 5.199548
2.363348 -4.406199 5.225451
1.391503 -4.802470 5.697128
-3.488700 3.581755 6.129552
2.107105 -4.534326 1.101054
4.866436 1.147955 1.835022
-3.290973 -3.764239 0.360247
-0.000250 5.000000 9.309019
-4.330085 -2.500072 0.273191
1.536827 -4.757958 7.642972
2.996782 -4.002412 8.589302
2.956879 4.031981 5.118990
4.400292 2.374327 7.963555
3.046318 3.964839 3.576761
3.707491 3.354774 0.063556
0.485720 -4.976352 6.298688
0.695415 4.951404 9.392946
0.884931 4.921067 6.073951
4.999955 0.021246 1.927658
3.829582 3.214701 8.050114
0.803252 4.935057 1.128042
-4.573425 -2.020838 3.843295
4.963849 -0.600167 0.547388
-0.284632 4.991892 3.654283
3.267195 -3.784896 6.065427
4.985703 -0.377845 3.425507
1.605231 -4.735318 7.467073
1.950259 -4.603965 8.161905
-3.634393 -3.433830 8.606619
3.331316 -3.728583 0.345609
-1.065993 4.885044 6.666515
-3.691291 -3.372591 0.949286
2.767004 -4.164575 2.210925
-4.388456 -2.396133 7.152026
-4.288780 -2.570286 3.785259
-4.980343 0.442925 3.910157
1.716671 4.696067 3.246094
-3.771302 3.282877 0.271837
-1.121042 4.872706 5.049057
-4.010634 2.985768 0.412040
-1.842678 4.648068 7.053381
3.433940 -3.634289 1.983741
