# X Y Z
4.903265 -0.978771 4.237185
-4.561640 2.047302 4.454566
-4.944483 -0.743029 1.173109
-4.145534 -2.795452 3.284304
-4.706294 -1.688431 6.117676
-3.634927 3.433265 2.241159
-4.962075 -0.614663 5.531781
-0.456219 -4.979143 8.368107
-4.366816 -2.435348 3.544530
4.343216 -2.477191 0.715598
-3.298737 3.757438 2.385183
1.144597 -4.867227 4.404496
0.783801 -4.938184 4.262014
4.412039 -2.352427 4.418386
-2.111759 -4.532160 3.543292
0.851053 4.927039 3.977249
4.939827 -0.773376 8.477718
-4.226210 -2.671919 0.418674
4.999225 -0.088004 1.154289
1.743911 4.686019 8.100376
-3.511120 3.559780 5.792893
4.761114 1.527020 7.624085
-4.462036 -2.256155 9.456142
-1.755168 -4.681814 7.833122
-0.464636 -4.978365 0.385039
-2.486040 4.338157 1.016134
-4.986070 0.372974 9.641159
4.306031 -2.541279 8.150402
4.582689 1.999741 3.275708
1.022200 4.894395 0.265724
4.979795 -0.449045 6.394225
3.415427 3.651693 7.454756
-2.062788 4.554657 6.875217
3.221621 3.823762 0.311291
-3.730624 -3.329030 3.447289
3.348361 -3.713284 2.298575
1.839841 4.649192 0.552278
0.719261 4.947996 1.482834
-4.015719 2.978926 1.123727
4.551249 -2.070298 0.996923
-0.383799 4.985248 5.670152
-4.673258 1.777824 5.233739
2.420736 -4.374933 3.118901
1.729325 -4.691422 5.923816
-4.418505 2.340259 6.910265
3.459996 -3.609492 9.080193
-1.479888 4.775974 2.509993
3.815309 -3.231628 9.643443
-4.874437 -1.113492 1.602192
4.603160 1.952157 5.949220
4.868331 -1.139894 2.130532
-4.073173 -2.899873 1.094639
3.998429 -3.002093 1.824839
-4.480411 -2.219441 8.716784
-3.998131 -3.002490 1.190361
4.999840 -0.040035 6.286023
3.367738 3.695719 6.999394
4.922968 0.874290 5.556830
1.601681 -4.736520 4.243260
4.997062 0.171374 0.858792
-0.308984 -4.990444 8.077812
-3.300114 3.756228 0.745576
1.184970 4.857556 2.571338
4.804169 1.385626 5.777612
4.910362 0.942521 2.844906
-3.819735 -3.226395 7.074391
-3.674379 -3.391009 4.782141
-4.611878 -1.931472 7.189974
-0.200978 -4.995959 6.446251
4.925652 -0.859040 0.224110
-2.514092 4.321960 7.723740
4.917884 0.902450 0.652703
4.116575 2.837923 7.752384
2.227492 -4.476413 3.299876
1.509945 -4.766557 9.753908
-3.861059 -3.176826 4.639766
3.562878 3.507976 9.988433
-4.957994 -0.646759 4.374636
-3.764334 -3.290865 2.521881
-4.108380 -2.849774 2.324118
-3.407170 3.659398 6.046285
4.735694 -1.604120 1.844360
-4.888886 -1.048233 0.482214
4.417135 2.342845 1.919453
-3.109792 -3.915251 8.052544
-0.995886 -4.899817 2.391905
3.327231 -3.732229 7.643195
-4.372713 -2.424744 8.938234
-4.374206 -2.422049 3.294545
3.954570 -3.059636 5.538021
1.379958 -4.805800 4.327376
-3.837411 -3.205351 3.909435
-2.261864 4.459145 5.478731
-2.968136 4.023701 5.947988
4.982108 0.422608 5.802859
1.210933 4.851148 2.982950
-4.998071 0.138888 0.867987
-3.706974 3.355346 9.553537
-1.090502 -4.879632 1.125668
-4.655263 1.824424 4.308626
-2.777725 -4.157432 3.531965
-2.919823 -4.058896 0.484271
-0.652576 4.957232 3.509477
-1.802752 4.663699 5.014576
-3.253821 -3.796399 5.556835
3.376390 3.687816 7.582900
2.941028 4.043557 3.284628
-4.585495 1.993298 4.375590
-3.727420 -3.332617 5.304538
-2.520373 -4.318301 9.479352
-1.987937 4.587822 7.958114
-4.887206 -1.056039 6.327386
4.243296 2.644701 4.655435
4.134439 2.811834 2.247421
4.978202 -0.466374 6.112901
-4.352720 2.460452 2.752220
-2.701131 -4.207600 7.672242
1.813615 -4.659485 0.384279
-0.113584 4.998710 2.818862
0.734084 4.945818 0.036505
2.553657 4.298701 9.139480
0.896657 -4.918944 8.384991
-0.713677 4.948804 4.048768
-3.171844 -3.865152 5.520919
-0.452844 -4.979451 5.507114
4.124656 2.826166 0.941504
2.467672 4.348631 0.949765
-4.391315 2.390889 1.563885
-4.847659 1.224828 6.367859
-3.705937 -3.356491 9.976859
4.673948 1.776009 6.718125
0.731047 -4.946268 1.225309
-4.564932 2.039950 5.692910
-2.361983 -4.406931 9.415760
0.815868 4.932987 5.287966
-3.864513 3.172623 8.565474
4.064822 -2.911568 0.315795
-3.186296 3.853247 3.165664
2.267500 -4.456281 7.090251
0.435515 4.980997 6.736469
3.941174 -3.076873 5.254993
-4.932045 -0.821542 4.057830
0.836350 4.929556 6.608962
2.641210 -4.245470 8.713651
4.250526 -2.633065 8.976953
4.893422 -1.026852 2.659635
4.661546 -1.808311 3.282089
0.657826 4.956538 1.932085
-4.729430 -1.622495 6.437883
0.882422 -4.921517 8.541206
4.867884 1.141801 9.580895
-2.301696 4.438715 4.184972
4.035507 -2.952064 4.273869
4.832453 -1.283508 2.830282
-1.306881 -4.826185 1.347235
-4.827066 1.303623 1.807248
-4.706850 -1.686880 6.274335
-0.783549 4.938223 8.469364
4.869731 1.133897 3.404508
-2.029424 4.569621 9.586588
4.201498 2.710611 6.957169
-4.230543 -2.665053 5.646461
4.002603 -2.996527 8.516024
-0.137577 -4.998107 8.831458
-1.900623 4.624676 1.327462
1.787397 -4.669605 7.754783
-4.530901 -2.114458 9.556298
-1.926292 -4.614044 8.705991
-4.197549 2.716722 3.942950
-4.992239 0.278474 1.290487
-4.312298 2.530629 0.182259
2.542737 -4.305170 9.220302
-0.849590 -4.927291 7.550126
-4.898390 1.002883 0.157214
-1.107571 4.875786 0.923753
4.765359 -1.513723 7.289463
-0.593582 4.964641 4.358689
4.085402 -2.882619 2.204409
1.759780 4.680083 8.592511
3.226388 -3.819740 1.223157
-2.695258 -4.211364 4.907243
1.761741 4.679345 7.524010
4.112410 -2.843956 7.832924
0.043157 -4.999814 3.832312
4.736313 -1.602291 5.805402
0.616780 -4.961812 3.838517
2.896660 -4.075458 9.743861
-0.646998 -4.957963 9.387694
-3.618192 3.450897 0.939157
-2.739880 4.182470 4.345225
4.951497 0.694749 3.924295
-4.988502 -0.338887 2.016275
-4.898837 -1.000700 1.752121
3.272940 -3.779929 0.533055
4.951313 0.696063 8.537490
-1.509710 -4.766631 1.906627
-4.989195 0.328538 9.386501
-4.051379 2.930244 3.990178
4.995987 0.200286 4.612144
2.234386 4.472977 2.000668
-1.220903 -4.848649 8.314371
-0.328232 4.989215 7.275388
-4.950410 0.702453 6.386948
-2.792083 4.147804 6.785886
3.117012 -3.909505 3.840661
-4.952244 -0.689404 8.561919
-4.393962 -2.386021 1.965205
-2.173642 -4.502808 3.333672
-3.019727 -3.985128 0.660919
0.709675 -4.949380 6.092661
0.820657 4.932192 1.742445
2.823603 -4.126411 0.994492
-3.505623 3.565194 3.285790
-4.994987 0.223845 0.503478
-4.892245 -1.032444 7.164559
-3.258559 -3.792333 1.677190
-2.717971 4.196741 6.077306
-3.844158 3.197256 6.928616
1.764438 -4.678329 7.104965
1.174099 -4.860195 7.595402
1.343496 -4.816121 1.245052
1.096305 -4.878331 0.792440
-3.286398 -3.768234 5.475544
-3.632001 3.436360 5.225707
-4.560345 -2.050184 2.756851
-2.233717 -4.473311 4.168529
-0.000964 5.000000 1.587241
2.791620 -4.148115 4.297576
4.512744 2.152937 8.548102
-4.407966 2.360049 1.403263
-4.685760 -1.744607 8.601354
4.362782 -2.442567 5.078199
2.218761 4.480748 9.324205
0.809385 -4.934055 1.955602
-1.369995 4.808650 5.152995
-0.412030 -4.982994 0.664683
1.697383 4.703072 6.279538
-1.849701 4.645278 3.924240
4.347211 2.470174 6.527277
0.634654 4.959558 1.133170
1.409732 -4.797151 1.919511
0.015447 4.999976 6.041678
2.608317 -4.265757 0.639738
-4.868016 1.141238 9.554643
1.341506 4.816675 5.079306
3.666385 -3.399650 0.779724
2.240189 -4.470073 3.711087
4.923925 -0.868887 7.383886
2.340515 -4.418369 0.037314
4.949079 0.711772 0.451744
-3.489229 3.581240 6.582195
4.358811 2.449646 1.616226
3.483719 -3.586600 2.903287
-2.557901 4.296178 7.720333
3.603586 3.466146 9.990786
2.014048 4.576419 8.697755
-2.109302 -4.533304 3.182444
4.632115 -1.882422 9.141750
-4.582379 2.000452 7.289741
-2.468413 4.348211 9.539064
-4.437833 -2.303398 4.017188
3.361362 3.701520 3.068557
-4.974617 0.503177 0.730190
3.783797 -3.268468 8.412672
-2.269529 4.455248 9.478758
-4.844536 1.237122 0.188560
-4.984056 -0.398983 5.093180
2.795642 -4.145406 8.236044
-4.943708 0.748163 2.901752
1.883753 -4.631574 9.994968
-2.552227 4.299551 5.300747
-1.759769 -4.680087 0.537187
4.840011 -1.254710 8.024270
0.394071 4.984447 2.237000
-2.516288 4.320682 5.237925
-3.359292 3.703398 2.946897
-3.023311 -3.982410 6.863672
1.336588 4.818042 8.049289
-0.980957 -4.902828 2.346767
-4.979123 -0.456431 5.029348
4.862353 1.165128 5.795502
-3.551546 -3.519449 6.333836
-2.065953 -4.553223 7.609846
-4.835229 -1.273011 6.200733
-1.419125 -4.794380 0.993527
4.140104 -2.803487 6.202601
-4.049790 2.932439 9.625726
-4.705164 1.691576 3.542476
-4.010249 -2.986286 1.609452
3.492297 -3.578249 2.379701
-3.210248 -3.833316 9.032609
0.744091 4.944323 7.125906
-0.302077 4.990867 6.559594
-0.189198 -4.996419 2.805774
-4.999750 0.049978 3.310617
4.949331 0.710018 3.293025
4.681639 1.755636 1.757232
-4.835647 -1.271425 5.441158
-1.862664 -4.640095 9.015065
3.991983 -3.010660 1.072718
4.833655 1.278976 2.726292
-4.591730 -1.978893 1.706105
1.307778 4.825942 8.049992
3.065807 -3.949789 7.358633
4.434135 -2.310507 5.786530
-1.831202 -4.652601 7.647356
2.764415 -4.166294 1.922426
-3.008692 3.993466 2.462274
4.019174 -2.974264 0.478521
4.164007 -2.767859 4.296912
-4.541563 -2.091460 2.721556
1.988291 4.587668 7.663296
-2.867674 4.095906 1.985343
-4.996513 -0.186709 1.146439
2.492781 4.334287 0.382640
4.102771 -2.857844 9.277075
1.197448 4.854495 6.662553
4.760921 -1.527621 0.614519
0.765582 4.941041 9.494813
4.107230 -2.851431 8.923342
2.051890 -4.559578 3.256220
-0.386072 4.985073 9.745519
2.083305 4.545310 4.921441
1.710612 -4.698277 9.415792
-2.607105 -4.266498 5.858106
0.571401 4.967243 9.754009
-1.855406 -4.643002 1.032028
4.779507 -1.468438 2.879309
-2.911412 -4.064933 5.334414
2.129390 -4.523903 0.426119
0.160243 -4.997432 6.187909
-0.249635 -4.993764 3.413348
4.266954 -2.606359 1.186969
4.645580 -1.848943 8.254411
1.058287 -4.886720 8.698796
2.406054 4.383025 4.926426
-3.825741 3.219271 5.058252
-3.557164 -3.513770 7.780870
3.972883 -3.035820 0.128974
2.359693 -4.408157 6.313725
-4.870456 -1.130778 7.469289
4.835717 1.271157 7.644725
1.844367 -4.647398 1.260266
0.005771 -4.999997 2.125527
4.923048 -0.873842 3.274746
4.034486 -2.953460 0.049675
4.244767 -2.642339 7.745658
-0.889436 -4.920254 6.835730
-4.765208 -1.514199 0.398963
2.141373 4.518243 4.638286
0.015594 -4.999976 0.107788
-2.069143 4.551774 5.126668
-2.836849 4.117315 4.847098
-2.502984 4.328403 6.635067
2.356242 4.410003 6.049553
-3.759371 3.296534 8.608809
1.646459 -4.721141 4.714640
1.744535 -4.685787 1.524335
-4.260595 2.616741 9.112292
-3.252399 -3.797618 4.202121
4.670750 1.784404 1.684881
1.413874 -4.795932 3.311862
1.187405 4.856961 2.867588
-0.623281 -4.961000 9.995263
0.115898 4.998657 7.039734
4.580844 2.003962 0.247868
3.080732 -3.938158 0.985105
-0.213129 4.995456 2.124899
3.106953 -3.917504 3.987522
-4.999986 0.011905 3.864167
4.774988 1.483069 3.026640
2.528175 -4.313737 0.586123
-4.771412 1.494532 0.655875
4.669291 -1.788218 8.159527
-4.252479 -2.629909 6.886878
2.451781 4.357610 0.307664
3.879731 -3.153995 3.526033
-4.556818 2.058011 2.764746
-4.991774 0.286684 0.253113
-4.512706 2.153018 9.697997
3.307417 3.749799 7.362143
-0.456087 -4.979155 4.494297
-3.429358 -3.638612 8.632603
-4.169198 -2.760034 9.385128
2.627983 -4.253670 7.887949
4.896612 1.011527 8.769581
-1.516926 4.764340 7.613781
0.102394 4.998951 0.075369
-4.981971 0.424219 7.942926
-2.812759 -4.133810 7.911934
-3.195973 3.845225 2.074940
4.693620 1.723349 7.416630
-3.545399 3.525642 0.815992
4.999166 0.091308 9.632877
-0.409243 4.983224 6.404406
-1.066424 4.884950 3.242975
4.614834 1.924398 1.976130
-4.653492 1.828938 4.783592
4.865464 1.152070 6.897898
-4.657868 -1.817765 1.898035
4.635300 -1.874566 3.507955
3.563144 -3.507706 1.370820
-0.705116 4.950031 3.837671
2.762366 4.167653 1.728333
-3.041456 3.968570 1.388127
-3.779034 -3.273973 3.816511
-1.292214 4.830133 1.918373
-1.893360 -4.627655 6.116876
4.830307 -1.291563 3.026698
-3.231963 -3.815025 8.135721
1.500255 4.769616 1.619306
-4.068726 -2.906109 2.124908
4.887161 -1.056249 3.866369
-4.414329 2.348127 1.783636
-4.413926 2.348884 9.880607
3.732591 3.326825 2.522318
-2.539635 4.307001 9.119682
3.630413 3.438038 9.402862
3.551735 -3.519259 4.569713
-3.005878 -3.995585 7.228832
-2.830507 4.121678 0.006988
2.533370 4.310688 3.862585
3.578825 3.491706 3.485660
-4.996106 -0.197306 4.357452
3.952387 -3.062456 7.225653
-3.826282 3.218628 8.580399
-4.990646 -0.305701 9.051557
4.713154 -1.669185 0.079851
-4.623718 1.902953 3.224748
3.107534 3.917044 5.151514
1.384119 -4.804603 0.609605
-2.628966 -4.253062 4.259003
-4.273317 -2.595913 8.938820
-0.849222 4.927354 9.174924
0.398157 4.984122 7.422117
4.995105 0.221191 5.113466
0.679797 4.953572 1.125056
-4.560172 2.050568 1.844664
4.492791 2.194272 2.763024
-3.887556 -3.144345 6.281083
3.496184 3.574451 9.704812
3.670792 -3.394892 6.164954
-1.505408 -4.767992 3.884225
3.045696 3.965317 6.532432
3.835621 -3.207493 4.748940
-1.032750 -4.892180 6.429281
-4.847003 -1.227420 4.102229
-1.567512 4.747937 3.344059
2.711831 4.200711 9.205391
-4.740819 -1.588909 5.736156
3.214621 3.829649 7.624807
4.804877 -1.383170 9.533301
4.875904 1.107049 9.702540
-4.995141 0.220388 9.825280
2.482544 -4.340158 6.065428
0.996173 -4.899759 7.717122
-4.008122 2.989140 6.519334
4.871725 1.125298 5.414229
-1.991436 4.586304 2.027744
2.993217 4.005078 4.275369
4.737508 1.598754 6.250832
2.971760 4.021025 5.708511
1.328284 -4.820338 6.878952
-4.138749 -2.805488 9.305209
-4.141625 -2.801240 3.742853
3.132425 3.897167 2.380391
0.285546 4.991840 5.451809
3.209705 3.833770 2.403689
3.185850 -3.853617 6.373644
4.261773 -2.614822 4.448582
-4.735986 -1.603258 1.897825
1.240938 4.843560 9.783242
-2.665390 4.230330 2.300864
0.785139 4.937971 4.992954
1.555405 4.751917 0.241910
-4.981073 0.434637 6.146091
4.503914 -2.171350 2.479151
3.734174 -3.325048 3.556609
-4.947507 0.722614 9.721450
3.687246 3.377013 3.097980
-3.259711 3.791343 4.345584
4.901139 -0.989362 8.253970
3.091472 -3.929733 9.717036
-0.116684 -4.998638 8.593061
1.287368 4.831427 8.941744
-3.002889 3.997832 5.884172
3.758316 -3.297736 8.178886
4.639807 -1.863381 4.690948
0.789079 4.937343 1.142853
1.859901 4.641203 9.716483
2.933495 -4.049026 6.814617
-3.312522 3.745290 4.938826
-4.627923 -1.892705 2.377484
-4.445677 2.288221 4.313953
-4.281498 -2.582397 5.479424
4.866076 1.149480 1.534686
0.610149 -4.962632 3.359408
0.525427 -4.972316 8.363036
0.857352 4.925946 8.367920
4.377583 2.415941 2.327171
3.878579 -3.155413 3.385750
-3.203843 3.838671 5.776935
-4.800470 1.398387 8.295691
-3.124961 -3.903155 5.365947
-4.315841 2.524582 8.268684
3.093033 3.928505 0.244294
-3.865445 3.171488 1.345575
1.350722 4.814099 1.403751
-3.300708 3.755706 6.056681
4.957621 0.649609 3.855474
4.917705 -0.903428 4.022954
-4.827801 -1.300899 9.696830
-2.842189 4.113631 8.368967
-2.320164 4.429090 5.583970
3.071087 -3.945684 6.010098
1.296267 -4.829047 3.881984
1.046540 -4.889249 3.392544
-0.018605 4.999965 1.591911
4.817654 1.337987 9.959174
-1.197329 -4.854524 7.907360
4.992048 -0.281883 3.114417
3.869079 3.167054 4.274600
-4.904399 -0.973072 0.962689
4.681002 -1.757333 9.221585
-1.730310 4.691058 4.056637
4.111797 2.844842 4.794050
-2.854740 -4.104931 1.757654
4.999337 0.081417 6.061634
4.982650 0.416170 0.650720
-4.930387 -0.831437 6.545894
-3.340989 3.719918 4.386796
-4.630593 -1.886162 8.991655
0.905216 4.917376 3.598868
-3.855455 3.183625 2.447454
-1.090356 4.879664 6.871054
-4.969861 0.548160 6.916125
4.484563 -2.211038 6.382609
4.943236 -0.751278 6.602239
4.506041 -2.166932 4.846367
4.993539 0.254099 7.616541
0.291173 -4.991515 3.248021
4.999235 -0.087449 9.125580
-4.262388 2.613819 9.891182
-4.859448 -1.177186 6.754848
-0.207689 -4.995685 2.658156
-2.196683 -4.491613 4.995474
4.191295 2.726362 0.001651
4.013853 -2.981439 9.999362
-4.559049 -2.053065 3.022480
4.999446 -0.074412 2.099976
-3.298876 -3.757315 9.273100
2.154465 4.512015 0.406746
2.654333 4.237277 4.493745
1.455851 -4.783356 9.294151
1.120141 -4.872913 3.969448
4.596049 1.968840 7.084191
4.977228 0.476661 5.142055
3.840848 -3.201231 6.870977
-3.062102 -3.952662 2.302239
-2.401723 -4.385399 7.520690
3.736618 3.322301 0.709493
2.865686 4.097297 4.743507
-2.832209 4.120509 2.005291
-3.976501 3.031079 4.273311
-2.770969 -4.161938 8.799380
-1.842881 -4.647988 9.400368
3.478963 3.591214 2.156691
-4.008861 2.988149 0.597973
-4.655257 -1.824441 5.210888
3.160800 3.874189 5.061995
3.019187 3.985537 7.956441
2.548227 -4.301922 9.311726
-4.212651 2.693246 1.634106
3.993462 -3.008698 7.332261
4.503817 2.171550 2.433926
4.993819 -0.248530 0.638879
4.950445 -0.702206 5.899329
-1.810054 4.660870 1.712701
1.976551 4.592739 5.866187
2.224885 -4.477710 5.202479
-0.310301 4.990362 1.525562
-4.977437 -0.474471 6.555157
-3.739967 -3.318531 3.605990
3.842342 -3.199439 7.413403
-4.840169 -1.254100 2.518624
-0.550147 -4.969642 8.306652
4.422675 2.332369 0.705247
-3.560137 3.510759 8.950934
-3.912382 3.113402 6.277495
4.044705 2.939450 1.188187
-4.216058 2.687909 2.212645
-4.999921 0.028096 8.661906
-4.765082 1.514593 8.733293
-0.925953 4.913513 2.681662
-1.372943 4.807809 0.484209
-1.429431 4.791318 2.327420
2.209527 4.485308 7.757377
3.365731 3.697547 0.853039
4.893087 1.028446 0.495038
-4.120753 -2.831854 4.221951
0.039492 -4.999844 7.808561
-4.272766 2.596819 1.419399
2.262969 -4.458584 8.676352
-0.852316 4.926820 0.512150
2.470686 4.346920 1.226355
-1.727315 4.692162 2.183756
1.206532 4.852245 8.748597
4.346324 -2.471733 4.271065
4.312195 2.530805 8.215241
2.292072 -4.443693 1.059674
-3.495905 -3.574723 4.374499
4.468591 -2.243144 8.796710
4.045561 2.938271 5.981584
-0.292053 -4.991463 3.822215
0.564889 -4.967988 0.132585
3.370102 3.693564 7.170283
-0.653334 -4.957132 5.545408
-4.008559 2.988554 3.750417
1.726596 4.692426 6.746866
0.938681 4.911097 7.183980
4.706681 1.687352 9.476255
4.433992 2.310782 6.972278
-2.329081 4.424408 9.818655
0.583291 4.965861 4.892035
1.077634 4.882490 1.645990
-4.378147 2.414917 0.529737
3.960151 -3.052410 4.767261
1.110800 -4.875051 6.279206
-2.521419 -4.317690 3.710591
-4.309830 2.534831 1.308140
0.098387 4.999032 4.910744
-4.801040 1.396429 4.931251
-4.993246 -0.259806 6.599074
1.398500 4.800437 1.702386
4.384603 2.403176 4.889675
-1.023131 4.894201 4.026662
4.062215 -2.915203 8.324704
3.364957 -3.698252 1.476939
3.238378 -3.809581 6.448018
2.278853 4.450486 8.298402
1.836114 -4.650665 4.661914
-0.318772 -4.989828 3.780453
-4.037509 -2.949326 3.393247
-4.996111 0.197160 1.290047
-2.632605 -4.250811 5.189021
0.660217 -4.956220 1.826017
-3.039628 3.969970 1.957089
-4.117966 2.835904 2.798855
-4.682296 1.753883 1.930478
4.884173 -1.069977 4.641309
-3.879437 3.154357 5.868802
-1.430482 4.791004 4.075780
-4.722825 1.641621 9.258007
2.753365 4.173605 8.039859
3.862657 -3.174883 1.307888
1.966801 4.596922 7.663891
1.429332 -4.791348 5.205752
-1.156660 4.864374 1.087852
-2.717592 4.196986 1.896362
-0.035951 4.999871 6.827297
4.993890 0.247107 4.133651
-4.456214 -2.267633 8.604443
4.822696 1.319698 9.907152
-4.999585 0.064383 7.532000
-2.084771 4.544637 6.694027
-3.498662 -3.572026 9.957719
-2.988682 4.008464 8.641810
-4.364451 2.439583 1.330925
3.825169 3.219951 6.568299
-4.550701 2.071502 6.721930
-4.531702 -2.112742 3.651929
1.084052 -4.881069 2.030739
-4.744396 -1.578198 7.442143
3.955974 -3.057821 2.449602
-2.454696 4.355969 1.192441
0.062082 4.999615 7.070447
-3.978357 3.028643 5.504911
-3.709051 3.353049 2.282462
3.685665 -3.378739 7.818519
-4.515296 -2.147581 2.377800
0.809627 4.934015 9.035910
-2.138931 4.519400 7.754522
-2.231277 4.474528 5.574675
-4.982013 0.423730 5.014827
4.318398 2.520206 1.780714
0.961526 4.906676 4.701682
-4.750953 1.558347 3.960045
2.161056 -4.508862 8.203238
-3.578107 3.492442 8.328537
4.999953 -0.021721 6.058349
-3.607974 -3.461579 8.338547
-4.185847 -2.734719 5.916521
-4.764432 1.516636 2.144560
3.735483 3.323578 3.173916
-4.968606 0.559420 3.550482
-2.699315 4.208764 3.685374
3.643372 3.424302 2.241197
-4.944483 -0.743028 8.494258
-4.902346 -0.983366 5.267395
-4.999900 -0.031636 2.875287
-3.839425 3.202939 0.648993
3.079156 -3.939391 8.087515
-2.141833 4.518025 6.278575
3.400848 -3.665274 8.413316
-0.571582 -4.967222 4.921283
3.885923 3.146363 4.658604
-3.022239 -3.983223 2.489166
4.697879 1.711706 6.900652
3.909989 -3.116406 9.245540
-3.165846 3.870067 2.768347
3.268101 -3.784113 6.154140
0.046507 -4.999784 9.478006
0.121721 -4.998518 4.945769
3.897071 -3.132545 3.377096
4.730680 -1.618847 1.447933
2.943106 4.042045 1.922395
-4.974666 -0.502693 2.211788
0.682503 4.953200 7.309063
-2.865722 -4.097272 0.907409
3.256872 3.793782 4.784548
4.718820 1.653099 5.865412
-4.972682 0.521949 2.572604
-2.700584 -4.207950 2.451651
-4.930993 -0.827832 8.809853
-3.315768 3.742416 4.017777
4.697499 1.712746 8.556265
4.961795 -0.616917 3.045186
3.347779 -3.713808 3.390778
-4.367147 2.434753 1.170161
2.130570 -4.523348 8.835636
4.815097 1.347162 1.296520
-4.112483 2.843851 8.485656
1.706348 4.699827 3.997111
-4.510212 2.158236 0.868539
-2.382202 4.396034 2.050529
1.647211 4.720879 5.851542
-0.537880 -4.970984 3.932273
2.772698 4.160786 7.811216
-2.161912 -4.508452 4.892570
-4.901932 -0.985424 3.003055
2.706831 4.203935 1.043013
-1.074816 -4.883111 6.664601
-1.033751 -4.891969 2.804870
-1.642855 4.722396 4.759128
-4.970992 -0.537811 2.571836
4.883760 -1.071861 5.319313
4.801624 1.394419 4.626489
-2.178884 4.500274 9.592138
3.925199 -3.097226 7.621339
-2.613154 -4.262796 1.555335
-1.272261 4.835427 4.922785
-3.689175 3.374906 3.596664
3.259168 -3.791810 2.069298
-4.950716 -0.700297 6.618522
-1.582377 4.743004 7.852567
2.661894 -4.232531 9.769172
4.967908 0.565589 8.089103
-2.525067 4.315558 7.052449
0.201333 4.995945 7.512173
0.242647 4.994109 1.903986
-4.987211 0.357393 0.628662
-3.402723 -3.663534 0.432611
0.291667 -4.991486 7.551766
1.307729 -4.825955 7.628825
-1.826110 -4.654602 4.286439
4.918689 0.898054 7.256166
-4.874965 -1.111180 5.967826
3.942036 3.075769 5.809383
-4.654075 1.827452 6.668316
3.889394 3.142071 4.084893
2.599753 4.270981 8.553364
2.164717 4.507105 5.809066
4.965269 -0.588305 0.730361
4.937599 -0.787472 9.185776
-3.793113 -3.257651 3.609975
-3.367620 3.695827 5.827135
4.228387 -2.668472 5.928443
1.217838 4.849420 0.005845
-3.212951 -3.831050 0.506836
0.779411 4.938878 0.639631
0.244461 -4.994020 8.740939
-2.810577 -4.135294 7.775901
4.992731 -0.269504 8.450364
2.032849 4.568099 8.711749
2.515252 4.321285 4.267768
1.743504 4.686171 2.334756
-1.072098 -4.883708 9.506138
-3.334739 -3.725522 8.182622
2.212611 4.483788 4.224383
4.922280 -0.878159 5.079237
-4.987119 0.358672 5.406355
4.817853 -1.337271 4.889346
-4.905931 -0.965318 0.170661
1.410440 -4.796943 3.344081
1.712703 -4.697515 2.333336
-4.589845 -1.983261 1.914073
2.825031 4.125433 5.041827
4.911256 -0.937853 5.410445
-4.750175 1.560718 6.663605
-0.251139 4.993689 7.126529
-1.079420 -4.882095 3.753347
-3.339282 3.721451 3.732271
-4.799139 -1.402949 2.728308
-3.907883 -3.119047 4.165190
-0.742377 -4.944580 8.016949
-0.237944 4.994335 6.643718
-4.370803 -2.428185 6.201959
1.127309 -4.871260 4.454875
0.364300 -4.986711 7.678785
-1.033355 4.892053 6.641965
1.311738 4.824867 9.901237
4.951034 0.698040 2.092963
-4.996036 -0.199051 4.416766
-4.954198 0.675223 0.727295
-4.334515 -2.492384 9.052031
-0.849084 -4.927378 3.791265
-4.239928 2.650097 2.311421
-1.820921 -4.656635 2.698101
4.179815 2.743930 5.159600
0.216113 4.995327 7.537014
1.239349 4.843967 3.348622
1.895357 4.626837 5.630374
1.040275 4.890586 5.251501
0.193334 -4.996261 2.722745
-1.345766 -4.815487 7.730138
4.944133 -0.745350 7.454780
1.319558 -4.822734 7.641397
4.322764 -2.512711 2.207303
4.824355 -1.313621 2.452073
0.233557 4.994542 2.019981
4.839532 1.256553 7.808758
-0.135207 4.998172 4.844517
2.372442 -4.401309 9.955745
-4.819000 -1.333130 4.127006
4.991514 0.291176 9.975249
0.759871 -4.941922 5.989128
4.862947 1.162647 1.330573
0.152089 4.997686 9.958216
-2.573598 4.286793 6.625167
4.612999 -1.928793 6.254789
3.164669 -3.871029 6.869811
1.953467 4.602604 4.195616
-4.119628 2.833489 8.375572
-4.974465 0.504675 5.546649
-2.249823 -4.465232 6.566242
-4.715686 1.662017 4.216883
-1.135111 4.869448 7.351722
-1.529453 4.760333 9.646542
1.488717 -4.773230 9.453962
-2.555833 4.297409 9.912989
2.151843 4.513266 0.319459
0.858154 -4.925807 2.843950
-4.983113 0.410595 1.595152
4.958600 0.642092 1.288986
4.387539 2.397811 3.712884
-2.460641 -4.352614 7.378886
-4.423572 2.330667 6.008554
-0.311311 4.990299 9.144304
0.786292 4.937787 9.448830
-1.480468 4.775795 6.790851
2.081818 4.545991 0.219563
-3.964086 3.047297 5.326739
4.862578 1.164190 7.044731
-1.093092 -4.879052 6.033505
4.792289 -1.426171 1.525724
0.905778 -4.917272 6.463222
-0.977765 -4.903466 7.258866
3.441765 3.626879 0.184044
3.096805 3.925532 4.939181
2.640118 4.246149 2.212449
4.018798 -2.974771 9.384018
-2.644338 4.243522 6.923788
2.303525 4.437767 4.594841
-3.310449 3.747123 8.937569
4.987110 0.358799 8.133150
-3.071027 3.945731 0.359722
-4.345909 2.472463 8.697864
1.724706 4.693122 6.538449
4.826838 -1.304467 3.489636
4.116215 -2.838446 1.365079
-4.403929 -2.367575 6.961633
-2.717557 -4.197009 3.060853
4.887664 1.053918 5.898592
-3.567119 3.503664 9.431571
-1.194812 -4.855144 9.478481
2.174573 4.502359 2.783846
2.378257 4.398169 6.690285
-4.708150 1.683247 9.641850
1.859269 4.641457 5.450278
-4.462186 -2.255857 7.588292
1.944764 -4.606288 4.806438
-4.975132 0.498059 9.668354
4.967802 0.566521 1.480334
-2.785322 4.152346 6.122401
-4.837793 -1.263234 5.905764
4.889322 1.046199 6.247286
4.615538 -1.922709 0.141165
-4.362976 2.442220 1.915133
4.500824 -2.177747 2.848334
-4.322971 2.512354 0.788358
-0.814284 4.933249 5.207249
-4.939709 -0.774126 4.326121
0.188373 -4.996450 1.919330
3.555082 3.515877 1.511439
-4.989220 0.328159 1.524747
-1.041805 -4.890260 7.728694
-3.958571 3.054459 1.019204
-2.735591 -4.185277 4.487131
3.246949 -3.802279 3.490897
-2.902334 -4.071420 8.405822
-4.855155 -1.194767 2.168561
4.618280 1.916114 5.469486
2.948186 4.038341 5.494942
-4.007749 2.989640 7.301513
-4.895602 1.016408 1.429755
-0.942844 4.910300 4.959288
-3.371007 3.692738 6.460851
-2.813966 4.132989 2.383633
-1.023054 -4.894217 0.731724
0.953309 -4.908279 6.578279
-0.717943 4.948187 8.749878
-4.728978 -1.623813 8.761840
-0.187623 4.996479 2.177871
4.861691 -1.167887 6.935198
0.757160 4.942338 8.468277
4.251277 -2.631851 6.922976
0.097917 -4.999041 3.042796
3.764970 -3.290137 2.192857
-2.293737 4.442834 9.938374
-0.798104 4.935892 3.674405
-2.561798 4.293855 4.919131
-0.176509 -4.996883 0.700651
-4.987960 -0.346781 7.970768
-3.973664 3.034797 0.331767
-2.580663 4.282544 0.186909
-1.966866 -4.596894 1.535402
-4.250992 2.632311 8.726243
4.422285 -2.333108 9.918842
-0.103814 -4.998922 4.869420
4.963551 -0.602625 4.555357
3.292869 -3.762581 6.375435
1.855388 4.643009 0.088713
-1.464400 4.780746 4.039766
-0.504386 -4.974494 6.054456
-1.628258 -4.727449 1.754512
-4.012251 2.983596 1.669363
-2.134509 -4.521490 4.893998
-4.670109 1.786080 0.971152
3.314972 -3.743122 8.922119
-4.995726 -0.206683 5.066762
-4.773555 -1.487674 1.476036
-3.310388 -3.747177 5.838580
2.727278 4.190699 8.024395
-0.768675 -4.940561 9.899904
-4.613396 -1.927842 9.673889
-4.505102 2.168883 2.976365
-4.856382 -1.189772 0.672577
4.364734 2.439078 8.556881
4.199026 2.714439 6.221425
-2.526839 -4.314520 9.667686
4.949506 -0.708798 5.794271
-4.894934 1.019618 8.993521
0.667358 4.955263 0.553646
-4.180418 -2.743010 9.559945
4.226971 -2.670715 9.426317
-0.321734 -4.989638 7.291759
4.999862 0.037157 1.164810
1.848742 -4.645659 7.072231
-4.691670 1.728651 1.548459
-3.701913 3.360929 0.550997
-0.082221 4.999324 8.303336
-4.949454 0.709156 0.741292
-2.938734 -4.045224 7.845761
4.845337 -1.233983 6.542262
4.507417 -2.164069 7.392320
-4.737999 -1.597300 7.899635
-1.332060 4.819296 0.097990
-4.849851 -1.216119 4.446395
4.077717 -2.893479 4.419540
-1.006732 4.897601 0.114122
-2.383801 -4.395167 2.057057
0.590928 4.964958 0.589318
4.767385 -1.507330 5.817980
-4.192733 2.724149 0.638401
-1.835129 4.651054 8.195394
3.526052 -3.544990 5.236179
-4.982411 0.419020 2.274213
4.913466 0.926204 9.364002
3.869035 3.167107 7.809805
-0.294749 -4.991305 6.433142
4.840723 -1.251960 2.043877
0.203207 -4.995869 9.558873
-4.991463 -0.292056 1.954725
2.708021 4.203168 7.117233
-3.386519 -3.678517 4.500839
-2.895542 4.076253 4.368558
-3.884523 -3.148091 9.376828
-4.046931 -2.936383 7.497477
-2.184332 4.497632 5.686417
-1.334042 4.818748 1.144403
