# X Y Z
2.672889 4.225597 7.922541
-4.930871 0.828559 5.132054
-1.563068 -4.749402 1.432361
-1.866930 4.638380 3.476195
-0.603599 4.963433 4.236426
2.598618 4.271673 3.450902
-0.458686 -4.978916 -0.510675
-4.999710 0.053848 8.413168
-1.025333 -4.893740 -0.919104
0.439394 4.980656 6.803535
-3.243364 -3.805337 5.401218
4.638299 1.867132 0.016760
-2.064189 4.554023 8.635113
3.138135 -3.892571 0.595999
-1.666093 4.714248 7.161979
4.112712 -2.843520 -0.666621
0.706718 -4.949803 6.545232
1.704584 4.700467 2.107659
4.391683 -2.390213 -0.760802
0.583970 -4.965781 3.522615
-4.761908 -1.524543 5.736913
4.531685 2.112778 6.880911
4.479130 2.222026 6.693841
-0.962412 4.906502 5.967906
-4.532719 2.110558 8.560235
-2.680636 4.220686 8.814961
-0.635264 4.959480 -0.894986
4.194911 2.720794 8.312152
-4.547601 -2.078299 2.877707
-2.374440 -4.400231 3.358370
1.082273 4.881463 2.016004
-2.940991 4.043584 2.256831
-4.682871 1.752346 2.833551
-4.309363 -2.535624 4.358008
4.890688 1.039796 0.735809
4.998784 -0.110262 2.833713
0.966364 4.905725 -0.953495
4.500391 -2.178642 8.080552
-4.990598 0.306486 3.837343
-4.897395 1.007730 2.028019
-4.922451 0.877200 3.394270
1.688399 4.706305 0.667796
-0.705653 -4.949955 8.733756
-1.210257 4.851317 6.681688
4.503444 -2.172323 7.214526
3.725325 -3.334960 6.330513
-3.958720 -3.054266 6.738165
-2.378787 4.397883 7.265233
-3.552883 3.518099 3.134874
4.317256 2.522163 -0.406660
1.063732 -4.885537 0.381709
2.464287 4.350551 -0.429759
-4.987252 0.356812 6.463172
-2.334908 -4.421335 1.966038
4.756208 1.542235 5.527098
-0.537070 -4.971072 1.780190
0.479406 4.976964 0.195598
4.113772 2.841985 7.635359
4.856073 -1.191032 3.692532
-4.422004 -2.333640 6.284737
-4.112067 -2.844452 1.433098
0.161908 4.997378 2.283315
-4.205272 2.704752 3.950191
2.771751 4.161417 3.008285
-4.999576 0.065123 7.289319
-3.218320 3.826541 5.709709
0.729942 4.946431 4.377976
-3.536386 -3.534682 7.278998
-3.096851 -3.925495 -0.104777
0.243471 4.994069 1.032110
2.510458 -4.324072 3.492887
-4.669240 1.788351 7.220670
-2.311576 -4.433578 2.711079
2.199329 -4.490318 -0.946731
1.138598 4.868634 1.981647
3.472943 3.597036 0.571710
-4.376781 -2.417393 7.309553
-3.272927 3.779940 0.836931
-4.997550 -0.156519 7.942922
3.215700 3.828743 8.968455
-1.805153 -4.662770 1.546524
-1.621268 4.729851 -0.120929
1.409684 -4.797165 1.593628
-4.506046 2.166921 -0.663525
4.234646 -2.658529 -0.822578
1.975632 4.593134 -0.378785
-1.135531 -4.869350 4.107028
4.757064 -1.539590 2.590915
4.065568 -2.910525 7.219240
2.485073 -4.338711 1.932935
-1.990662 -4.586640 4.163852
4.967703 0.567390 3.519603
-4.930713 -0.829500 -0.752425
2.067521 -4.552511 4.054348
4.999120 -0.093801 6.289609
-3.834567 3.208753 8.219496
4.567786 -2.033551 5.328470
-4.815098 1.347158 6.711759
-0.846177 -4.927878 5.432893
3.734765 3.324384 0.820336
-2.066256 4.553085 3.215551
-3.724228 -3.336184 4.999170
4.606966 -1.943158 5.226126
-3.591368 -3.478804 -0.521831
2.443880 4.362047 -0.716358
0.239369 4.994267 5.925904
0.750096 4.943415 6.792701
1.572536 4.746275 5.464411
4.692351 1.726800 8.594362
4.463514 2.253229 7.446328
-0.890852 -4.919998 -0.349321
-0.735949 4.945541 7.224871
3.601883 3.467916 3.834993
-0.078765 4.999380 0.988166
-1.179664 -4.858847 1.695588
2.699534 4.208624 6.709291
-2.595894 4.273328 -0.819853
-2.980798 -4.014330 3.382213
-4.548978 2.075283 6.668894
4.647548 -1.843989 7.912485
0.072032 -4.999481 1.696191
-2.083113 4.545398 7.230991
3.850004 3.190214 1.960563
4.951083 0.697694 5.940424
-1.926193 4.614085 -0.671549
-0.443692 4.980275 4.877807
1.947333 -4.605203 3.134622
4.507339 -2.164231 8.952433
4.983108 0.410651 5.172128
-4.974630 -0.503049 6.724536
-3.729434 -3.330363 8.801927
-1.470383 4.778909 8.319868
4.664571 -1.800494 4.020262
-4.413283 2.350092 2.461013
-4.278689 2.587049 4.914808
-4.790447 1.432347 6.564249
-4.225998 2.672253 3.647481
-4.654579 1.826168 8.489704
-1.652312 -4.719096 3.158801
-4.353214 2.459580 4.918266
1.064122 4.885452 6.313241
3.850671 -3.189409 4.359519
3.649009 3.418294 -0.993398
-1.862002 -4.640361 3.140509
4.999969 -0.017658 1.904595
-4.904421 -0.972962 4.702081
-4.395019 -2.384073 -0.101636
-0.762120 -4.941576 4.251356
-2.064270 4.553986 -0.762552
-4.885516 -1.063832 8.170432
4.450755 -2.278328 7.465274
-3.688089 -3.376092 3.556681
-4.050826 -2.931008 5.075619
-2.136958 4.520333 3.040539
-3.829213 3.215141 5.558590
-4.849600 -1.217119 6.673516
3.227567 3.818744 5.460480
-0.230354 4.994691 0.422789
0.699716 4.950798 3.034216
4.931368 -0.825599 3.387774
-3.541347 -3.529711 -0.485118
1.816573 4.658333 0.048801
-4.484782 -2.210596 4.507614
3.517343 -3.553632 7.187790
-4.640103 -1.862645 5.350989
3.958041 -3.055145 3.923248
3.863651 3.173673 7.466798
4.862603 -1.164085 2.884169
-1.651732 4.719299 3.250967
-3.574791 3.495836 7.683790
-0.203865 4.995842 -0.184018
-3.939813 3.078615 3.517619
-4.792075 -1.426890 7.171282
-4.445759 -2.288061 3.908692
-4.942011 0.759292 7.818579
1.398729 -4.800370 2.260091
-4.708896 1.681159 3.938619
2.353423 -4.411508 3.147941
4.605293 -1.947119 1.355341
-2.958596 4.030721 7.966344
-2.115370 4.530476 3.109518
4.810204 1.364527 5.764968
0.639784 4.958899 6.746761
1.416792 -4.795070 -0.821088
4.951371 0.695646 6.959262
2.642400 -4.244728 4.577511
2.494940 -4.333045 -0.654900
3.327663 3.731844 0.011207
-4.579862 2.006207 6.991210
0.235895 4.994432 0.742991
-1.561135 -4.750038 3.360030
4.850057 -1.215297 3.229665
4.895074 1.018944 3.072997
-3.074758 -3.942825 0.128573
-3.242888 3.805743 4.030520
-4.872435 1.122221 5.223754
1.672387 4.712019 1.315704
-4.564751 -2.040355 7.200332
4.803546 -1.387786 3.849784
4.272823 2.596726 0.553007
-2.839510 -4.115481 -0.998723
4.853496 -1.201491 4.206552
-1.113128 -4.874520 1.775538
-4.330046 2.500140 6.324101
-4.997664 0.152824 -0.476874
4.810765 1.362548 7.262586
4.863569 1.160041 3.638077
4.666032 -1.796704 4.699357
4.166979 -2.763383 1.834081
0.422453 -4.982121 7.690011
3.590501 3.479698 2.097618
-3.579154 -3.491369 7.817115
-4.906203 0.963938 3.316649
-4.588858 -1.985544 7.366699
-4.440488 2.298275 -0.443030
4.301007 2.549772 4.135256
-2.178590 -4.500416 0.348470
4.746924 -1.570577 4.958019
4.014279 -2.980866 1.120106
2.337207 -4.420120 7.599283
0.366675 4.986537 4.056417
-1.235985 -4.844826 1.885027
4.751152 1.557740 2.189847
-4.566897 -2.035547 5.455800
2.694345 4.211948 6.954040
0.851328 -4.926991 1.645935
-4.932768 -0.817191 4.560684
4.219751 -2.682108 1.462954
-0.239656 4.994253 6.618257
-4.978177 -0.466645 0.811238
-4.704789 -1.692619 2.356284
-4.894596 1.021241 3.239649
4.959035 0.638728 6.771926
1.386442 -4.803934 3.701037
4.994797 -0.228035 -0.758872
-4.005543 -2.992595 8.811916
4.160365 2.773331 3.226644
-4.494984 2.189777 2.498903
4.941936 0.759782 3.978859
-2.357298 4.409438 -0.059985
-4.461748 -2.256724 4.882666
-4.365422 -2.437845 7.978786
-0.083565 4.999302 5.353987
0.082053 4.999327 0.230404
1.194992 -4.855100 1.691128
-4.967587 -0.568402 2.301915
3.844806 -3.196478 5.308165
2.216075 -4.482077 8.420290
4.338714 2.485067 7.714850
-3.328117 3.731439 1.563313
2.495559 4.332688 6.697405
2.792531 -4.147501 4.545363
1.272974 4.835239 0.536844
-0.366507 -4.986549 5.290489
4.416733 -2.343602 4.402271
2.165021 -4.506960 8.021322
-0.717781 4.948211 6.127532
-0.850939 -4.927058 0.291509
-3.448048 3.620906 -0.215585
-1.706979 -4.699598 6.645595
-4.870219 1.131797 5.263761
4.999890 -0.033098 2.568608
-3.812702 -3.234702 4.629716
3.358783 -3.703860 5.192187
-3.440791 3.627803 8.877171
4.147532 2.792486 8.629211
3.999813 -3.000249 0.398616
-4.945065 0.739142 2.136873
-1.725471 4.692840 6.839140
4.841204 -1.250098 8.345505
-1.806477 -4.662257 5.178568
-4.876471 -1.104548 0.019375
2.096571 -4.539206 6.361839
1.128949 -4.870880 1.084692
4.527887 2.120904 5.201296
1.564293 -4.748999 5.118284
-0.145549 4.997881 2.128467
-4.227798 2.669405 5.272631
-0.500564 -4.974880 0.804847
3.251416 -3.798460 4.891052
4.686691 -1.742105 3.876423
4.999993 -0.008093 6.945327
-4.947544 0.722363 0.580374
4.858878 -1.179538 4.674991
1.927570 -4.613510 8.766204
4.215205 2.689246 1.103248
-0.980538 4.902912 1.665339
-4.789897 1.434186 6.363291
2.293169 -4.443127 -0.431039
-4.537254 2.100792 3.690630
3.765379 -3.289668 -0.340124
-3.001186 -3.999111 5.564855
2.160451 4.509152 -0.317062
4.987578 0.352227 6.434916
4.917085 -0.906794 8.026044
-4.954706 0.671482 4.612533
2.054390 4.558451 7.484481
-4.921355 -0.883324 3.037755
-0.105566 -4.998885 7.644833
-2.798508 -4.143471 0.189091
4.992321 0.277006 -0.646456
-0.653565 -4.957101 -0.992022
-4.509338 2.160063 3.383671
-2.896442 4.075613 4.838878
-0.724789 4.947189 0.592700
-0.623683 4.960949 5.993234
-4.056400 -2.923289 5.273088
4.904238 -0.973882 7.409670
-4.891037 -1.038150 8.759368
2.384534 4.394769 3.199572
-4.782951 1.457182 -0.923993
2.997743 -4.001692 4.332256
2.479282 4.342023 1.735211
-0.094151 -4.999113 -0.313242
4.996495 0.187184 4.061777
-1.364899 -4.810099 -0.357850
4.663550 1.803138 7.851309
3.608545 3.460983 5.042729
4.542750 -2.088880 2.142622
-2.734566 -4.185946 7.604214
2.822890 4.126898 8.279275
2.975203 -4.018478 8.094652
-1.348464 -4.814732 -0.764508
-4.428766 -2.320782 3.431798
-2.709983 4.201903 2.094825
-4.716966 1.658381 0.040152
2.239375 -4.470481 8.434268
1.103294 4.876755 -0.978692
-4.429610 -2.319172 0.682703
-2.111800 -4.532141 0.812639
2.649915 -4.240041 2.360845
-4.815196 1.346806 3.700531
-0.063068 4.999602 5.655297
0.965649 4.905866 7.837211
-4.930970 0.827969 -0.380306
-4.193405 2.723115 5.068203
-3.407954 3.658667 6.490214
-2.098996 4.538085 6.379566
2.187213 4.496232 3.949906
0.949445 4.909028 2.418386
-4.996047 -0.198772 0.151230
-2.509191 4.324807 6.373485
-3.551357 -3.519640 6.572255
1.948178 4.604846 -0.282989
-4.993659 -0.251740 5.117259
3.525700 3.545340 0.633982
2.822209 4.127364 0.927804
-1.616217 -4.731579 3.853588
4.349142 -2.466771 2.570854
4.675133 1.772887 4.651362
-0.931543 -4.912456 2.958559
-0.345654 -4.988038 7.361323
-3.205424 -3.837351 4.146902
-2.896106 -4.075852 6.571919
4.860368 1.173380 6.890496
2.784179 -4.153113 1.946621
-3.716358 -3.344949 1.337050
4.102461 2.858289 1.398159
0.716253 4.948432 6.911182
1.967583 -4.596588 4.477775
4.497905 2.183770 8.137663
-1.004688 -4.898020 5.824815
4.783454 -1.455530 5.875311
1.208255 -4.851816 1.799478
-4.701466 1.701829 0.835857
-0.548444 -4.969830 7.019257
4.692599 1.726126 3.147940
-3.352455 3.709588 2.874050
-3.045125 3.965755 7.633033
1.402631 -4.799232 7.679940
-0.317879 -4.989885 4.767853
4.159683 2.774353 1.655139
0.928629 -4.913008 4.655089
1.138429 4.868673 1.745016
4.956293 -0.659670 5.236769
-4.998270 -0.131531 6.739745
1.844687 -4.647271 2.669854
2.055898 -4.557772 -0.937850
4.790848 1.431006 5.210026
-4.999995 -0.007302 6.597953
-0.584896 4.965672 4.343057
1.201480 4.853498 3.115147
-0.217179 4.995281 2.194957
-2.284865 4.447403 0.486492
-0.670641 4.954820 1.803052
2.431027 -4.369223 8.033584
-4.736740 -1.601030 0.635823
4.993313 -0.258497 1.042882
-3.558291 -3.512630 0.877527
-2.199592 -4.490189 1.813743
1.358919 4.811792 0.299510
-0.441108 4.980504 -0.257031
4.818223 -1.335936 4.731711
0.844036 4.928245 8.886515
0.796601 -4.936135 3.026923
3.515943 -3.555016 -0.560293
-2.900345 -4.072837 3.919944
3.475950 -3.594130 6.907082
-4.962695 0.609640 4.169250
-4.130556 2.817536 8.094399
4.947258 0.724319 2.354389
0.326837 -4.989306 8.910948
-3.467924 3.601875 2.688506
4.181966 -2.740650 2.797854
3.923045 3.099955 -0.686168
-4.657796 -1.817949 6.972974
-4.659838 1.812709 0.095740
3.474233 3.595790 6.569223
4.326545 -2.506194 7.739412
-3.104429 -3.919505 6.334646
-4.763998 1.517999 7.775292
-4.898780 1.000976 1.869956
4.884673 -1.067692 2.303905
3.392535 3.672970 8.206350
3.591426 3.478744 3.545249
4.319122 -2.518966 3.711925
-0.890786 4.920010 5.363689
4.731739 -1.615748 2.389655
2.275447 -4.452229 4.237265
-3.830210 -3.213953 5.900179
-2.783985 4.153243 0.684883
1.242090 -4.843265 1.967113
-3.190805 3.849515 5.249942
-4.731208 -1.617305 0.193745
1.950346 -4.603928 5.263868
-2.037152 4.566181 0.176075
-4.215540 2.688721 5.864335
3.251362 3.798506 -0.206606
-4.587519 1.988635 2.475206
-4.551753 2.069190 3.145514
4.968705 0.558546 1.310291
1.035382 -4.891624 2.581070
-3.906786 3.120420 6.434945
-3.051502 3.960850 3.443046
3.273273 -3.779641 1.754793
4.954584 -0.672383 -0.571194
-4.999180 -0.090556 4.202830
4.573419 -2.020852 -0.508298
4.999879 -0.034783 7.751498
1.626976 4.727891 -0.375015
-2.695450 4.211241 0.632862
4.788857 1.437655 0.885465
-4.618389 -1.915850 7.478113
3.819231 -3.226991 7.505704
3.379797 3.684694 8.148671
2.865013 4.097767 5.306013
-3.883566 -3.149272 -0.723758
-4.871355 1.126900 6.279661
1.040055 -4.890632 5.538650
4.398252 -2.378104 5.230173
-3.498506 3.572178 7.149965
-1.688363 -4.706318 -0.007630
-1.513862 4.765315 5.997467
2.381808 -4.396247 8.143074
-4.955973 0.662068 8.625191
-3.730034 -3.329691 -0.954630
0.896580 -4.918958 -0.982112
1.481486 -4.775479 0.259162
-3.628150 3.440426 7.503707
-0.153142 -4.997654 5.750683
3.325711 3.733583 7.123755
-4.917343 -0.905396 2.714183
-3.763190 -3.292173 4.740113
4.601280 -1.956584 -0.472985
-4.412379 2.351789 2.102874
-0.211277 -4.995534 8.419757
-4.789401 -1.435839 4.751198
-4.635417 -1.874276 -0.415882
4.929534 -0.836475 5.237862
-3.116049 3.910274 4.166552
-4.477941 -2.224421 1.787443
-3.604579 -3.465114 7.128870
1.978443 -4.591924 1.228889
3.396400 3.669396 -0.900469
4.783470 1.455477 2.153140
-1.635921 -4.724803 8.577097
1.727402 -4.692130 8.945967
-1.418737 4.794495 6.114715
-4.153185 -2.784072 2.044009
-3.053568 3.959258 4.833696
-4.465739 2.248817 -0.937149
4.079105 2.891522 5.076208
-3.625413 3.443310 7.232888
-1.280817 -4.833168 8.705312
0.887672 4.920573 7.470389
-1.236217 -4.844767 8.015019
0.035432 -4.999874 3.032447
3.793493 -3.257209 3.647878
-3.788386 3.263148 3.713720
1.373193 -4.807738 8.866306
0.981875 4.902644 7.115864
2.172900 4.503166 -0.283720
3.095776 -3.926344 2.735268
-0.886259 4.920828 8.334729
4.349619 -2.465930 -0.729098
1.366818 4.809554 0.138542
0.651787 -4.957335 8.195116
-3.187676 3.852106 -0.008242
-1.484448 -4.774559 2.987327
1.152579 4.865343 5.908025
-0.131970 4.998258 -0.639263
-1.357595 -4.812165 6.526601
-0.571114 4.967276 0.105782
-4.304999 -2.543027 8.382898
3.754926 -3.301595 3.134932
-4.911259 -0.937836 1.374857
0.666197 4.955419 0.865935
-4.940853 -0.766794 3.134899
-4.960232 0.629362 3.197071
-3.181365 -3.857320 7.264217
4.493652 -2.192509 -0.492195
4.824624 -1.312632 -0.625708
-3.407225 -3.659346 8.053129
2.956918 4.031952 -0.721051
-3.157218 3.877109 8.344721
-4.776930 -1.476800 7.946241
1.272600 4.835338 7.307379
-1.877663 -4.634046 6.200730
-4.918423 0.899511 -0.540350
-4.079744 2.890620 8.962508
0.777481 -4.939183 2.486593
4.305675 -2.541882 4.082488
4.996742 0.180484 2.847997
-0.178867 4.996800 4.131574
-3.683521 -3.381075 4.899804
-1.199712 4.853936 6.715650
4.514985 2.148235 8.129554
4.587889 -1.987782 6.710748
4.962339 0.612532 -0.512183
-4.973925 0.509968 1.781867
2.212680 -4.483754 8.296106
-4.922015 0.879643 8.090990
-2.766123 4.165161 7.969113
-4.999953 0.021762 0.586048
-1.544326 4.755529 4.292205
-4.102430 -2.858334 2.968344
-4.494757 2.190243 8.896805
2.202492 -4.488767 -0.103618
-0.740338 -4.944886 3.812861
-3.734112 -3.325118 5.278512
4.614884 -1.924278 5.634606
-0.497014 -4.975236 0.228185
0.541911 4.970546 8.574947
-4.704860 -1.692423 5.588461
0.785926 4.937846 2.933816
-1.967167 4.596766 3.275174
4.461516 2.257184 8.361894
-4.025422 2.965801 1.569983
-0.412604 4.982947 5.816363
-4.998644 0.116423 0.852441
1.692225 -4.704931 5.375564
1.963761 4.598222 -0.333011
2.362356 4.406731 1.527715
2.904411 -4.069938 3.807146
-3.603665 3.466064 7.878529
-0.788876 4.937375 0.177120
-4.459193 2.261769 8.171515
-2.962462 4.027880 1.129373
3.459901 -3.609583 5.603075
4.380845 2.410020 2.849036
3.137349 3.893205 2.794784
-1.789395 4.668840 7.491747
-4.656738 1.820656 0.960563
4.846765 -1.228362 -0.120207
3.937307 -3.081820 3.393767
-2.210647 -4.484757 7.261236
2.985312 4.010974 0.784341
-1.232091 4.845818 4.055966
-3.046808 -3.964462 0.038167
1.752414 -4.682846 -0.187383
4.135190 -2.810731 7.533481
1.558059 -4.751048 -0.342287
4.482553 2.215112 6.838758
1.335241 4.818416 -0.392765
3.911821 -3.114106 -0.747195
4.383221 -2.405696 0.407465
-1.981926 -4.590422 3.855093
4.909423 -0.947398 1.595904
-4.923266 -0.872613 0.902549
-2.073699 4.549700 6.435369
-1.361188 4.811150 2.480434
-0.332069 -4.988961 2.884199
-4.081057 2.888767 -0.158175
3.395398 3.670323 6.945205
2.532463 4.311221 2.490972
3.277441 -3.776027 1.854367
0.147344 4.997829 6.083066
1.991697 -4.586191 6.497649
1.365255 4.809998 0.421254
3.199040 -3.842674 7.815112
0.206993 4.995714 5.566270
0.505498 4.974382 3.933964
2.916296 -4.061431 0.401463
-1.203764 4.852932 0.677578
3.880753 -3.152738 5.604983
0.060448 -4.999635 7.466304
4.390205 -2.392928 1.868497
4.979829 0.448667 1.394243
0.166805 -4.997217 7.101462
-1.640395 4.723252 8.789795
-1.093582 -4.878942 0.991685
4.641342 1.859555 0.163741
4.436971 -2.305057 1.076412
-1.660770 -4.716126 -0.350791
1.408481 4.797518 2.005043
-3.203000 3.839374 0.576245
-3.074149 -3.943299 3.546563
-0.938604 -4.911112 0.112448
-1.445043 -4.786632 1.417363
3.426251 -3.641539 6.871376
1.032295 4.892276 7.222502
4.890223 -1.041979 2.817918
-4.183963 -2.737601 3.536069
-4.893707 -1.025492 4.804321
1.911893 4.620029 3.500511
4.605368 -1.946943 0.317634
-4.371580 -2.426786 6.520881
-4.538096 2.098973 4.310017
-4.999722 -0.052737 4.697857
4.841444 -1.249170 3.026356
-4.961619 -0.618337 1.271369
4.999361 -0.079928 6.179383
4.934578 -0.806189 -0.901024
3.524763 3.546273 -0.477328
4.304959 2.543093 8.510172
2.876308 4.089848 0.294438
-3.473692 3.596312 4.629433
-4.477131 -2.226050 2.745963
-4.999837 0.040334 -0.799951
0.805626 -4.934670 2.687341
2.958795 4.030575 -0.566573
4.663336 1.803689 8.913308
-1.014206 -4.896058 -0.615843
-0.336145 -4.988688 2.684735
4.805052 -1.382561 1.184881
0.063290 -4.999599 2.082430
-4.024339 2.967271 7.223676
1.166125 -4.862114 5.048601
3.672577 -3.392960 0.500053
0.488515 4.976078 2.772261
-3.023292 3.982425 7.468283
-4.981722 -0.427137 8.892649
-2.874882 4.090850 -0.832296
-4.479217 2.221849 2.767355
-1.602841 -4.736127 -0.836824
4.464743 -2.250793 7.885001
2.730073 4.188878 6.887059
2.157349 4.510637 3.682793
2.069148 -4.551772 1.747199
4.989166 -0.328977 6.367288
2.604577 -4.268042 -0.355009
3.267706 -3.784455 5.260239
0.433514 4.981171 5.418682
-4.417666 2.341842 4.752431
-3.045968 3.965108 8.349835
3.115007 -3.911104 -0.767698
-0.506966 -4.974232 6.354007
4.516801 -2.144414 2.862426
-3.900667 -3.128066 8.788354
-4.924189 -0.867386 6.115379
2.422780 -4.373801 -0.517949
1.144197 4.867321 -0.918976
-3.766076 -3.288871 4.923279
-4.928258 0.843965 4.264255
-0.129314 4.998328 3.166661
-4.153435 -2.783698 2.576071
-3.793731 -3.256932 1.553880
4.998000 -0.141417 7.009418
-0.232023 4.994614 6.188488
-3.866000 -3.170812 7.328173
4.637625 -1.868805 5.708099
4.374402 2.421696 -0.787291
4.713861 -1.667187 5.024279
3.278166 -3.775398 0.259839
0.000439 5.000000 8.635527
-4.526172 -2.124562 4.061890
-1.721462 -4.694312 6.652894
4.768699 1.503167 7.323477
2.349593 4.413549 1.233256
-4.835911 1.270420 5.834870
4.566905 2.035528 3.237763
-2.096019 4.539461 8.771968
1.244086 4.842752 -0.107762
-4.877818 1.098586 3.448520
1.808794 4.661358 8.687501
-4.556879 -2.057875 8.211061
4.855032 -1.195269 0.738893
4.988136 -0.344232 0.873829
-0.846184 -4.927877 5.632745
2.865142 4.097677 0.531642
1.947360 -4.605191 3.905707
-4.074234 -2.898382 0.671427
-4.065272 2.910939 5.346967
-0.251849 -4.993653 7.109432
3.379928 3.684574 2.867978
3.119080 -3.907857 4.875476
-3.629606 -3.438889 6.205139
-2.444701 -4.361587 0.758877
3.985212 3.019617 8.664053
1.787757 4.669467 7.963941
4.674286 -1.775120 7.188152
4.838623 1.260052 2.198455
-3.722168 3.338482 1.644855
4.996691 0.181872 3.705338
1.794312 4.666953 7.400214
0.391387 -4.984658 -0.341111
-4.619673 -1.912753 3.156356
-4.241247 -2.647985 5.350923
-1.830964 4.652695 2.737370
-4.258025 2.620920 3.925709
-4.942837 -0.753900 5.839592
0.726588 4.946925 4.631438
-4.136261 2.809154 2.907228
-2.406460 4.382802 4.465090
4.373399 -2.423506 5.663186
0.598888 -4.964004 4.606661
-4.991165 0.297100 4.674559
-4.865095 -1.153625 8.551411
-4.968940 0.556446 4.349944
3.922665 3.100435 3.515593
2.020216 -4.573700 2.606273
0.395007 -4.984373 6.153317
0.245102 4.993989 7.311170
2.816468 4.131284 6.316895
-0.805279 -4.934726 4.954163
2.927055 -4.053684 3.289008
-2.374360 -4.400274 8.839291
-3.846010 3.195028 7.365041
3.381692 3.682955 3.814582
1.221425 4.848517 4.657491
4.971068 -0.537105 6.677245
3.732900 -3.326478 4.262129
0.530052 -4.971825 6.988336
4.692986 -1.725075 4.426325
0.153498 -4.997643 -0.014010
0.481924 4.976721 1.901279
-4.348406 -2.468069 -0.216836
4.799837 -1.400560 4.588899
-4.970164 -0.545408 7.278761
-2.699730 4.208498 5.860155
-4.666419 1.795700 -0.379609
4.374123 2.422199 7.868140
2.284061 4.447816 0.094711
-4.923148 0.873277 6.023409
-0.743199 4.944457 3.149386
4.988040 -0.345629 5.168359
2.399506 -4.386613 0.179931
-4.622777 -1.905239 1.862296
3.373491 3.690469 -0.688797
-3.959121 3.053745 0.551036
-0.142378 -4.997972 7.848740
2.131210 4.523046 0.057621
-1.344328 -4.815888 2.031970
-0.038461 -4.999852 2.828040
3.719770 -3.341154 5.889544
-3.967219 -3.043217 0.722149
-0.955122 -4.907926 8.057591
-1.042506 4.890111 1.676509
-4.556926 -2.057773 4.772314
4.987743 -0.349879 5.669695
-3.979130 -3.027626 -0.092153
2.885617 -4.083285 -0.861598
2.536577 -4.308802 4.765676
3.375049 -3.689044 1.194338
-2.822463 -4.127191 0.965690
4.973997 -0.509263 6.372460
1.449304 4.785344 2.636235
-1.537583 -4.757714 6.817255
-2.197450 -4.491238 2.548444
-4.557465 -2.056579 5.546813
-1.571438 -4.746639 7.727479
-4.911371 0.937250 5.084041
-3.019522 -3.985284 -0.622417
-1.784301 -4.670789 1.537106
-1.093763 -4.878902 2.241734
-2.945728 -4.040134 8.487438
-3.965746 -3.045137 -0.405409
-3.584980 -3.485387 2.459895
3.628352 3.440213 -0.272741
2.232917 -4.473710 1.885582
-2.341579 4.417806 -0.326660
-4.273933 -2.594898 1.882099
-2.389963 -4.391819 5.621071
3.047151 3.964199 0.611722
-4.732077 -1.614760 6.259389
-4.539627 2.095658 7.570636
4.319899 2.517632 5.156767
-2.781234 -4.155086 -0.682491
-4.287812 2.571900 5.736519
3.259363 -3.791643 8.097445
-3.985248 3.019569 2.732802
-0.117709 4.998614 0.097939
3.186744 3.852878 2.652570
-2.070622 4.551101 0.700808
4.753114 1.551745 0.516701
3.422054 -3.645483 7.001864
0.446178 4.980053 -0.976276
-2.092493 4.541087 4.883044
-0.008948 4.999992 -0.297158
3.398378 -3.667564 5.529730
-3.823114 -3.222390 5.368571
-2.493602 -4.333815 2.450567
-4.996826 0.178117 1.156161
4.462459 2.255317 8.581434
-4.766753 -1.509327 3.940333
-2.460824 4.352510 6.043721
4.892705 -1.030259 -0.792575
-4.196332 2.718603 1.816495
3.043154 -3.967268 5.014022
4.179280 2.744744 0.559727
3.829661 3.214606 3.135896
-1.008190 4.897301 2.424604
2.200622 4.489684 6.422469
1.933552 4.611006 6.663107
-0.797747 -4.935950 1.068908
3.638137 -3.429863 2.071706
-4.942710 0.754729 5.963567
-4.768011 1.505348 5.408233
3.860777 -3.177169 6.217132
-2.475024 4.344451 5.225827
-4.958770 -0.640780 0.066987
-3.888128 3.143638 1.113214
-2.461414 4.352177 5.872480
-4.912060 -0.933633 -0.383215
2.089428 4.542498 6.041007
-3.668153 -3.397742 2.821209
4.615162 1.923610 5.267644
1.291705 -4.830269 7.072250
-0.991449 -4.900717 6.182567
-2.866028 -4.097058 2.762813
-4.264184 -2.610888 2.004263
-1.195472 -4.854982 1.596514
-4.806943 -1.375974 8.547327
4.518949 -2.139884 8.804171
-3.689769 3.374256 3.258647
-2.420180 -4.375240 0.228350
0.137901 4.998098 2.634270
-1.759663 4.680127 6.561219
0.925646 -4.913571 4.711046
3.521235 -3.549775 7.509132
-4.920386 -0.888711 6.492054
2.105521 4.535061 5.166491
-4.999067 -0.096562 1.290977
4.913152 -0.927866 4.604968
-0.367682 -4.986463 0.091930
3.923879 -3.098899 -0.728024
0.593960 -4.964596 2.394346
-2.830975 -4.121356 8.356595
-2.349830 -4.413423 6.124307
2.459698 4.353147 3.000906
-4.413760 2.349197 2.337168
4.919028 -0.896192 6.862483
-0.748977 4.943585 6.024743
-4.852430 1.205786 -0.986877
-1.221491 4.848501 4.797654
-2.245302 -4.467507 3.452215
2.146135 -4.515983 5.102912
-4.780409 1.465500 1.652450
-2.369806 4.402728 4.341693
0.723448 4.947385 0.516291
-3.205085 -3.837633 4.124089
-3.833819 3.209647 6.156782
4.562296 -2.045839 3.204497
0.656358 -4.956732 4.565919
-4.035886 -2.951546 7.964479
-4.166084 2.764733 7.364152
-4.917444 0.904845 3.307296
-3.143287 3.888412 6.251642
-2.894926 -4.076691 4.052860
-1.037345 4.891208 7.871033
-2.492408 4.334501 4.970496
4.961219 0.621536 0.280676
4.990180 0.313216 6.654346
-4.586431 1.991142 2.225318
2.180930 -4.499283 3.663950
4.863627 -1.159799 8.527187
-2.776018 -4.158572 3.088241
-4.666225 1.796203 1.834757
4.717244 -1.657591 8.377941
-4.019026 -2.974462 1.003351
-4.965759 -0.584154 5.181974
-1.607458 -4.734562 7.356691
-2.430673 -4.369420 8.643065
-4.283122 2.579703 3.577196
4.411703 2.353057 3.188156
-0.163625 -4.997322 3.635949
-2.809154 -4.136261 3.415612
3.301402 -3.755096 0.168080
2.261573 4.459292 4.719384
-4.184313 2.737065 1.814299
0.009369 4.999991 3.497416
-4.986134 0.372118 7.507866
-4.518057 -2.141766 4.666273
0.675957 -4.954097 4.928699
0.765598 -4.941038 1.262576
-0.021199 4.999955 8.846971
-2.547553 4.302322 4.536771
-1.414762 -4.795670 1.230864
-1.495988 4.770956 3.703968
-4.906179 0.964060 8.870875
-4.114702 2.840639 2.866641
2.342910 4.417100 -0.077906
4.161634 -2.771426 8.777794
-4.848372 -1.222001 -0.426588
4.774508 -1.484613 1.930761
-1.555708 -4.751818 7.262044
0.440322 -4.980574 -0.159880
4.849691 -1.216758 5.094293
4.209256 -2.698548 3.828425
1.239273 4.843986 0.878193
-4.027868 2.962479 4.287002
-4.986054 0.373184 3.883132
-0.914329 -4.915689 6.816313
4.410099 -2.356062 0.423476
-4.994065 -0.243536 1.512568
4.609320 -1.937568 4.936394
4.725071 -1.635147 1.735983
-4.960879 0.624245 8.413256
4.746369 -1.572252 7.129561
-1.950233 4.603976 -0.093150
4.574865 2.017576 1.441861
4.994718 -0.229760 7.455581
-3.922380 3.100796 -0.464782
4.282695 2.580412 2.627102
4.356058 -2.454538 6.482543
3.590259 3.479948 7.678494
2.681880 4.219896 4.154561
4.929168 0.838629 -0.920992
-4.997826 0.147437 5.931301
1.470731 -4.778802 2.056316
4.743344 1.581358 5.161183
0.891758 -4.919834 -0.002735
2.169654 4.504731 5.733308
-0.377138 4.985756 -0.756998
-3.948019 -3.068085 3.011347
2.731630 4.187863 6.350095
4.987119 -0.358664 4.153030
-0.390629 -4.984718 8.601228
0.432114 4.981293 -0.863120
-1.334308 -4.818674 8.698363
-1.171441 4.860836 3.594622
4.891999 1.033610 -0.567352
-4.864079 1.157903 1.910464
-2.746761 -4.177954 2.363590
-4.478935 -2.222417 1.476868
4.227614 -2.669696 2.374448
-4.783808 1.454367 0.814868
-2.436223 -4.366328 5.891881
1.079470 4.882084 6.669570
4.176001 -2.749730 3.162580
3.283685 -3.770598 4.598219
0.701337 -4.950568 7.490837
3.792993 -3.257791 3.862624
4.444719 -2.290082 7.240314
4.602523 1.953657 0.186799
4.741368 -1.587272 2.533633
-4.953722 -0.678706 4.290354
-2.907281 -4.067889 4.308844
-3.131317 3.898058 7.653993
4.934828 -0.804660 3.862867
4.399678 -2.375466 3.837529
-3.598299 3.471634 -0.180722
0.319745 4.989766 8.708903
-4.905927 0.965339 5.023071
-1.241782 -4.843344 1.712691
-4.459296 -2.261566 2.365350
4.327169 2.505117 6.661848
4.794518 1.418659 3.631820
4.808170 -1.371679 5.631736
0.374397 4.985963 -0.724642
-1.482509 -4.775161 7.579493
3.980390 3.025970 -0.054136
-2.049516 -4.560645 5.903894
3.641419 -3.426378 1.418055
4.118538 -2.835074 3.407232
4.999956 0.020916 5.907328
-3.800004 -3.249610 6.709143
0.236143 4.994421 -0.163065
2.244299 -4.468011 3.610342
-4.888709 -1.049059 1.993439
2.485422 4.338511 7.069685
-4.996813 -0.178490 7.644242
3.802728 3.246423 3.053536
0.579284 -4.966330 7.098255
0.587436 4.965372 3.588221
-4.966217 0.580246 0.114394
-3.015941 -3.987994 4.502655
3.839429 -3.202934 7.527987
4.686400 -1.742888 5.590572
2.637200 4.247961 8.144137
2.152208 -4.513092 8.005710
-2.168972 -4.505060 5.650729
2.961879 -4.028309 3.294692
-2.122850 -4.526975 5.111642
-4.269123 -2.602803 0.843396
-4.743163 1.581899 -0.120964
-3.920795 -3.102800 8.946606
4.171998 -2.755800 6.848467
-3.624193 3.444594 2.481518
3.553900 -3.517072 -0.604188
